# .PCD v0.7 - Point Cloud Data file format
VERSION 0.7
FIELDS x y z normal_x normal_y normal_z curvature
SIZE 4 4 4 4 4 4 4
TYPE F F F F F F F
COUNT 1 1 1 1 1 1 1
WIDTH 397
HEIGHT 1
VIEWPOINT 0 0 0 1 0 0 0
POINTS 397
DATA ascii
0.0054165144 0.11346323 0.040715452 0.11189406 0.59490597 0.79596895 0.012019092
-0.0017505402 0.1138745 0.040811677 -0.0053766081 0.60884732 0.79326922 0.011651932
-0.010602033 0.11305021 0.040496789 -0.11648622 0.59844172 0.79265279 0.010490922
0.026263796 0.11479947 0.032407928 0.55092138 0.60448313 0.57540053 0.023740781
0.024353875 0.12255688 0.024009829 -0.55683649 -0.78371119 -0.27519062 0.029107664
0.033868317 0.11296739 0.024873557 0.74715912 0.57357663 0.33580211 0.02556596
0.028683584 0.117551 0.02685762 0.63389641 0.67065454 0.38522443 0.027231865
0.026644634 0.1221977 0.017509889 -0.61837363 -0.78552002 0.023922635 0.03332863
0.036035098 0.11247735 0.019243734 0.80552936 0.56875396 0.16625716 0.021019582
0.015889801 0.12284575 0.031050615 0.3349272 0.76101196 0.55559385 0.019003199
0.0078830114 0.12394579 0.032342546 0.15910819 0.77674085 0.60939169 0.017485054
0.018118635 0.11677152 0.035529755 0.35122862 0.64208132 0.68144703 0.019749515
0.0086558005 0.11753619 0.03748548 0.16648163 0.64761108 0.74356157 0.01425817
0.017999128 0.12519023 0.025973327 -0.39744976 -0.83803171 -0.37381354 0.018548392
0.0080579165 0.12845498 0.026015064 -0.16475281 -0.91325361 -0.37259144 0.018530913
0.022403851 0.12088957 0.02911742 -0.48450518 -0.7361452 -0.47259393 0.020821564
-0.0018685119 0.12431133 0.032928415 -0.025942337 0.78503406 0.61890912 0.015827101
-0.01111191 0.12337707 0.03213001 -0.13529506 0.78140008 0.60918725 0.013551721
-0.0020008632 0.11877454 0.037458453 -0.020074002 0.66904289 0.74295264 0.014186782
-0.012186864 0.11747644 0.036654778 -0.12768401 0.66985005 0.73143536 0.011462576
-0.0016643802 0.12867485 0.02668163 0.039031401 -0.91595674 -0.39937422 0.016143989
-0.011947994 0.1270777 0.026091272 0.15237823 -0.89665282 -0.41568571 0.01225788
0.016383767 0.12803479 0.019089336 -0.37336889 -0.921727 -0.10495225 0.02180977
0.0070457337 0.1306843 0.018171556 -0.14127612 -0.98574895 -0.091324024 0.018516297
0.0014619444 0.13134857 0.01710009 -0.032426212 -0.99692935 -0.071277447 0.017719122
-0.013775856 0.12859237 0.019069737 0.12005278 -0.95290524 -0.27849403 0.0077314759
-0.017206496 0.11184558 0.039847478 -0.14687899 0.59391904 0.79100358 0.012341244
-0.074634872 0.13394837 0.050445195 -0.082076155 0.27687266 0.9573949 0.077121809
-0.065926298 0.14404549 0.041215319 0.32804367 0.53228521 0.78042287 0.068433017
-0.071959093 0.14503816 0.042739611 0.072366044 0.57867604 0.81234056 0.071221761
-0.064435981 0.13731635 0.044754226 0.39320093 0.3539246 0.84860498 0.065969706
-0.070989914 0.137935 0.048080679 0.12317009 0.38276324 0.91559893 0.066087626
-0.079442285 0.13399558 0.050791275 -0.23679392 0.27643678 0.93140286 0.0834172
-0.080388732 0.1442045 0.042697836 -0.39157841 0.55303448 0.73540413 0.078667775
-0.082837544 0.1379891 0.047155924 -0.4077262 0.38692236 0.8270734 0.083151318
-0.088727601 0.13559282 0.043063249 -0.78309244 0.25243366 0.56836915 0.075756684
-0.067095719 0.12353095 0.048353113 0.3014738 -0.0059672971 0.95345581 0.076168187
-0.072641037 0.12650074 0.051315904 0.025607366 0.022222621 0.99942505 0.087894469
-0.066822916 0.11983221 0.047693133 0.26298699 -0.051460806 0.96342599 0.072614826
-0.072425023 0.11848868 0.049424496 0.018221118 -0.20019278 0.97958708 0.075418986
-0.062215239 0.12635739 0.044315927 0.43214282 0.13204323 0.89208585 0.062893003
-0.068274431 0.1300171 0.049034387 0.23562698 0.15846238 0.95883763 0.076947436
-0.062904857 0.11809453 0.044885889 0.33211514 -0.034740757 0.94259888 0.073634207
-0.071309097 0.11357673 0.04671609 -0.0078852195 -0.22420968 0.974509 0.085701004
-0.080662228 0.12745726 0.052960798 -0.38574889 0.02446066 0.92227948 0.13162975
-0.07813561 0.11921465 0.050462633 -0.27921596 -0.23478021 0.93108362 0.097176358
-0.085876845 0.12623309 0.050533574 -0.62880313 -0.086035803 0.77279001 0.14539754
-0.090101257 0.12621149 0.045131508 0.72238851 0.048102736 -0.6898123 0.10558565
-0.082508944 0.11672277 0.047644991 -0.46261328 -0.28545269 0.83934838 0.098376304
-0.088372916 0.11831965 0.043458328 0.72120082 0.2333771 -0.65223044 0.079021066
-0.058265999 0.15060666 0.028196609 0.52406943 0.64957011 0.55082655 0.045272425
-0.057167951 0.15164165 0.025289919 0.54454112 0.65907979 0.51873773 0.042072359
-0.037241623 0.17145464 -0.0018015611 0.47711337 0.14019971 0.86758679 0.011320568
-0.03845847 0.17160465 -0.0011916197 0.46500614 0.14274023 0.87372452 0.011320568
-0.037242658 0.16880155 -0.0014398597 0.45249081 0.18764324 0.87180394 0.011155593
-0.033948727 0.15664078 0.00030052059 0.40639344 0.3093687 0.85972983 0.011085477
-0.051881101 0.15455674 0.011328436 -0.3409023 -0.72298247 -0.60090101 0.11521871
-0.042192739 0.16588221 0.0015840762 0.093469076 0.49320918 0.86487472 0.04619474
-0.049138464 0.16226506 0.0031898401 -0.13545191 -0.58479536 -0.79979199 0.087422565
-0.041962568 0.15659185 0.0053334888 0.48633575 0.35537142 0.79824102 0.064577103
-0.051164985 0.15759307 0.0072735734 -0.32892483 -0.60368478 -0.72620463 0.11901841
-0.062960781 0.15210812 0.032327436 -0.37343657 -0.72959745 -0.57291597 0.068007752
-0.071661279 0.15432861 0.034405395 -0.024594503 -0.7704823 -0.63698679 0.091042027
-0.062504478 0.15532587 0.027466778 -0.34679231 -0.79024976 -0.50521326 0.075290769
-0.072207712 0.15795033 0.028845048 0.07531295 -0.87052923 -0.48631963 0.082545109
-0.07883656 0.15340963 0.032838792 0.44843411 -0.64637297 -0.61734015 0.085851066
-0.081962876 0.15502179 0.026826216 0.62155491 -0.71784294 -0.31364155 0.098639384
-0.087170906 0.15219344 0.022058902 0.8258341 -0.48628089 -0.2855328 0.078618728
-0.057060424 0.15666798 0.010991473 -0.1535424 -0.83474988 -0.52878857 0.11141659
-0.05795256 0.15800348 0.0075765634 -0.17942746 -0.81748927 -0.5472815 0.10757075
-0.088288501 0.1519883 0.019056801 0.84819597 -0.45893469 -0.26446649 0.075274825
-0.056660462 0.14575133 0.030359272 0.61535233 0.54503876 0.56945086 0.0324402
-0.054608744 0.13561061 0.032226283 0.6655153 0.3787421 0.64315146 0.029010549
-0.054669231 0.1467604 0.025813922 0.66485643 0.5171575 0.53899354 0.030753136
-0.046626702 0.13233858 0.021907007 0.54779345 0.5180409 0.65692919 0.043483946
-0.051324792 0.13698626 0.025847718 0.66543114 0.43507704 0.60655534 0.02705613
-0.018232046 0.12210912 0.03049974 -0.13907427 0.78637099 0.60189623 0.011323816
-0.021612406 0.11622599 0.034960683 -0.14081106 0.65791327 0.73981237 0.01345583
-0.03191923 0.1155834 0.032751322 -0.029738797 0.6325165 0.77397579 0.024621796
-0.021381918 0.12452095 0.024865238 0.083339915 -0.8566643 -0.50909793 0.014436301
-0.032412469 0.12345069 0.02324673 0.10763526 0.78926671 0.60454339 0.037220325
-0.024861798 0.12087835 0.028671026 -0.087958269 0.76504105 0.63794637 0.02261183
-0.031755291 0.12002148 0.02773775 0.03458672 0.72133493 0.69172227 0.032175589
-0.054004427 0.12627745 0.033431035 0.5939306 0.3164022 0.73968649 0.047311455
-0.041690703 0.11557128 0.032892749 0.19138388 0.53348976 0.82386947 0.048249457
-0.051584922 0.11725336 0.035716467 0.39736271 0.30687302 0.86483049 0.084251225
-0.042410661 0.1250397 0.02431328 0.41607827 0.62714297 0.65846074 0.047986303
-0.048442077 0.12694 0.02732406 0.54149997 0.48012456 0.69011462 0.055294752
-0.04237077 0.12045947 0.028817533 0.31224382 0.57706618 0.75465119 0.051194228
-0.047027964 0.12108076 0.030461511 0.41831946 0.48488456 0.76804674 0.060905717
-0.03511354 0.15199937 0.0023578175 0.42167047 0.31185195 0.85143548 0.011050788
-0.050047964 0.14782211 0.014450665 0.59971243 0.50977463 0.61682642 0.056578562
-0.045392442 0.13383639 0.019408179 0.50519139 0.54065263 0.67266363 0.042176221
-0.048058074 0.13934605 0.017297519 0.60926437 0.47766849 0.63295317 0.02982847
-0.042639885 0.1495059 0.0059808604 0.54425091 0.35669518 0.75931519 0.07577759
-0.046868701 0.14783481 0.010349305 0.55444652 0.48798987 0.6741327 0.095104702
-0.022999363 0.12716821 0.018899756 0.018019194 -0.889094 -0.45736983 0.018630935
-0.031510033 0.12646015 0.018430177 0.11342867 0.77571666 0.62080395 0.033585999
-0.040915981 0.12937522 0.018206634 0.3999579 0.63153231 0.66422933 0.042160571
-0.061462793 0.14701347 0.036200672 -0.50226289 -0.57028943 -0.65000153 0.069044754
-0.071722664 0.15017641 0.038252767 -0.097850099 -0.61662138 -0.78115517 0.090879656
-0.058922116 0.13808323 0.038334597 0.56177098 0.4117648 0.71753961 0.04958399
-0.082627065 0.14824669 0.035969768 0.5823108 -0.58912289 -0.56022173 0.069237866
-0.087888852 0.14455801 0.033853132 -0.80941856 0.46207711 0.36238983 0.075220712
-0.089860499 0.13885483 0.038664479 -0.81237495 0.36792222 0.45241594 0.085612573
-0.085593961 0.15083896 0.028108988 0.78061497 -0.51060104 -0.36045364 0.081990115
-0.089100808 0.14674856 0.025427619 0.88633537 -0.40920061 -0.21671285 0.079587907
-0.0926302 0.1384086 0.024559442 0.965922 -0.23869029 -0.10010801 0.041048095
-0.058390673 0.12937281 0.039454229 0.60934544 0.22142814 0.76135916 0.036724083
-0.058849208 0.11524708 0.040616821 0.32530776 0.10725304 0.93950605 0.096576244
-0.093022257 0.12764208 0.039612606 0.89425129 -0.0087238913 -0.4474802 0.090743996
-0.090112284 0.1171297 0.038453814 0.85409248 0.2479009 -0.45724306 0.056547139
-0.093755335 0.12720665 0.02532392 0.98228931 0.010200736 -0.18709256 0.032540843
-0.092436962 0.12094244 0.024045067 0.98383307 0.10988329 -0.14141479 0.037022378
-0.091117769 0.14500298 0.019680584 0.93320525 -0.32068574 -0.16213757 0.057507411
-0.093293212 0.13746206 0.020473713 0.98653674 -0.15504733 -0.05201567 0.067936212
-0.090980425 0.1166794 0.018581374 0.98372376 0.075187445 -0.16320057 0.026890738
0.024995038 0.10289869 0.041489009 0.48323321 0.41867214 0.76889485 0.019581579
0.033218365 0.092476763 0.040065933 0.68027949 0.23037168 0.69580793 0.01998728
0.027349601 0.096345894 0.0432145 0.53956807 0.31386825 0.78125095 0.020738583
0.033532929 0.086829968 0.040636007 0.68821925 0.14903536 0.71003008 0.016609881
0.028319124 0.086883061 0.045291793 0.57808638 0.15883349 0.80036747 0.017727133
0.033524632 0.078584641 0.040551044 0.68326247 0.03602555 0.72928357 0.012916171
0.028329939 0.076871142 0.045335192 0.59694999 -0.0040672272 0.80226815 0.011544916
0.014334353 0.093110256 0.050417729 0.31777018 0.32156959 0.8919726 0.015402107
0.0073078335 0.094441436 0.051574972 0.19357607 0.36430702 0.91093838 0.013195558
0.017345773 0.1052632 0.042991251 0.32858869 0.47821012 0.81445968 0.012979121
0.0082124537 0.1070585 0.044090629 0.16644676 0.52472836 0.83483869 0.0099210078
0.018448206 0.097129755 0.047113791 0.36597699 0.37639746 0.85110855 0.012240153
0.0087267039 0.099487692 0.04842386 0.19814859 0.44091761 0.87540209 0.012080964
-0.0020420677 0.095077477 0.052517936 0.024914013 0.40351212 0.91463506 0.012518906
-0.011221824 0.094685756 0.052580945 -0.16156258 0.37391493 0.91328263 0.021494947
-0.0018490017 0.10758568 0.044498801 0.01347076 0.54771358 0.83655745 0.008098226
-0.011995052 0.10737757 0.043776002 -0.12986574 0.54332578 0.82941663 0.0094834259
-0.0017197281 0.1015845 0.048246559 0.022619322 0.48684365 0.87319624 0.0088642659
-0.012816624 0.10108302 0.047800839 -0.15613388 0.46749553 0.87009776 0.012163091
0.016474018 0.085937858 0.051859558 0.3814815 0.19005178 0.90462822 0.017576186
0.0080163497 0.086803161 0.05478704 0.22933109 0.23104508 0.94552916 0.018965026
0.017467564 0.076948002 0.052003726 0.42185703 0.010772168 0.90659839 0.010410881
0.0082207788 0.076853298 0.055941865 0.25061414 0.032154709 0.9675529 0.016817112
0.020834461 0.088290468 0.049501706 0.43737656 0.21985699 0.87198889 0.020105239
0.022296695 0.075726748 0.04931467 0.50295722 -0.017718561 0.86412966 0.010396491
-0.0017915308 0.086879164 0.056959722 0.021460364 0.2333179 0.97216368 0.024630571
-0.011836601 0.086652353 0.056440767 -0.22019826 0.21901517 0.9505499 0.032039985
-0.001956519 0.076865435 0.058025688 0.01471154 0.027352557 0.99951756 0.022176905
-0.011958359 0.076954722 0.057355393 -0.25506568 0.0061985739 0.96690387 0.034618337
0.032932036 0.067584299 0.039628275 0.62800395 -0.093411222 0.77258354 0.016204506
0.02841996 0.066767879 0.043318972 0.59367102 -0.12893574 0.79431123 0.012337563
0.026532814 0.057919234 0.042249564 0.54525054 -0.24463536 0.80178261 0.010338374
0.023585381 0.047450617 0.040451888 0.4771339 -0.41006294 0.77729762 0.011377362
0.015938455 0.067377537 0.051892318 0.39823744 -0.1413683 0.90632331 0.011434312
0.0080366684 0.066906609 0.054980516 0.24559958 -0.15092273 0.95755059 0.014872925
0.014087174 0.058817722 0.050669577 0.36391065 -0.25126761 0.89690226 0.012582364
0.0078776898 0.057097506 0.052141458 0.24819465 -0.25786549 0.93375844 0.015734944
0.020799451 0.06588155 0.048691452 0.48878431 -0.15538114 0.85845596 0.0075676022
0.01850811 0.05658789 0.047729168 0.44967934 -0.27800182 0.84882474 0.0097200945
0.012692316 0.052815538 0.049191214 0.35924122 -0.29777515 0.88446349 0.014364638
-0.0017867307 0.066753753 0.056184694 0.015811255 -0.14813612 0.98884058 0.017298361
-0.011512467 0.066997901 0.053928364 -0.25809625 -0.13340364 0.95686454 0.033278517
-0.0018543976 0.056781091 0.053431015 0.018990669 -0.22111079 0.9750638 0.040596258
-0.011573178 0.057157688 0.051361155 -0.20633389 -0.11095007 0.97217095 0.047830027
-0.01565758 0.052479137 0.049490254 -0.2160853 0.01477355 0.97626269 0.044500206
0.0064022811 0.050237365 0.050342143 0.2354719 -0.28403097 0.92945111 0.022529237
0.018198039 0.046567652 0.043519139 0.43264419 -0.41588441 0.79991198 0.010087133
0.0092140688 0.044997908 0.047589462 0.31349996 -0.33096138 0.89004624 0.019095931
0.016693035 0.040579583 0.041300192 0.42513692 -0.46843165 0.7744872 0.010271103
0.00825819 0.039342999 0.045725103 0.32355404 -0.33905271 0.88337761 0.019902321
-0.0016696375 0.050022535 0.051037386 0.081014074 -0.17489228 0.98124892 0.036070149
-0.012389571 0.04676016 0.050581224 -0.038080066 0.059073571 0.99752706 0.055201791
-0.013966762 0.039809704 0.051827181 0.14069144 0.27508807 0.95106912 0.057076491
-0.0018091802 0.044363283 0.049525123 0.16380914 -0.078740954 0.9833445 0.036619775
-0.012015978 0.046937127 0.050593819 -0.034442201 0.045289107 0.99838001 0.055201791
-0.0016157506 0.039168939 0.048823733 0.25831565 0.020920785 0.96583402 0.02435407
-0.0091855479 0.039250985 0.051025596 0.1509203 0.2051298 0.96702886 0.04993283
0.043052085 0.093834043 0.022179216 0.89855111 0.31732628 0.30316654 0.011601851
0.034786813 0.10481483 0.031959724 0.7317301 0.42265552 0.53472739 0.02352844
0.028472645 0.10730056 0.036488771 0.56779748 0.48415801 0.66573048 0.019826217
0.036395121 0.096572742 0.03488896 0.75841647 0.28773987 0.5848164 0.021099802
0.031694818 0.099350169 0.038462501 0.64706117 0.3435964 0.68062717 0.020742217
0.036967035 0.10666238 0.026759759 0.79989254 0.45147741 0.39539856 0.024392528
0.032669432 0.11092167 0.029399334 0.69989842 0.53436512 0.4739157 0.025601661
0.040576745 0.097000368 0.026440807 0.8589372 0.33006853 0.39151198 0.015412179
0.043854326 0.086383462 0.024038037 0.85172182 0.27599674 0.44541639 0.018966248
0.052329544 0.071818814 0.019273492 0.73287547 0.31875771 0.6010716 0.0292733
0.046233423 0.076864056 0.024433291 0.79364169 0.23755112 0.56009138 0.023814889
0.03774038 0.086586215 0.035205957 0.76072359 0.1757981 0.62481564 0.018202426
0.037675798 0.076595828 0.03547743 0.7193706 0.074229009 0.69064897 0.020565834
0.041832116 0.08713349 0.027972475 0.83613461 0.2327881 0.49667758 0.018852247
0.04274147 0.076827869 0.028910892 0.76539224 0.17520455 0.61925608 0.026958304
0.043681297 0.096162908 0.015179177 0.91976762 0.36744261 0.13788937 0.011216272
0.043658804 0.09655866 0.0083827116 0.91714907 0.39724019 -0.032215253 0.012275923
0.039935689 0.10629977 0.017858412 0.88841355 0.43668154 0.14152941 0.01811224
0.042406067 0.10012554 0.017277153 0.92369306 0.36243677 0.12422046 0.012628839
0.046312042 0.087727979 0.016089924 0.86687797 0.39068288 0.30966032 0.018780252
0.053940061 0.072302401 0.017012896 0.72945774 0.36780378 0.57672507 0.032053828
0.050980188 0.074413091 0.019264156 0.76113886 0.32552761 0.5609808 0.027292913
0.048031852 0.087062396 0.010535755 0.83786702 0.49337527 0.23358019 0.025368242
0.019725572 0.10996939 0.039594747 0.37523749 0.53252804 0.75869012 0.015937688
0.011425034 0.11161528 0.041081216 0.21238653 0.56126589 0.79992032 0.013486096
0.045272369 0.05745814 0.029458562 0.58582181 -0.097420156 0.80456334 0.032706421
0.053545415 0.065852083 0.021574588 0.6695841 0.24687199 0.70050794 0.040862825
0.048076611 0.06700594 0.026199898 0.68946362 0.13990197 0.7106809 0.039950736
0.054850064 0.057345442 0.023317622 0.60342813 -0.020633576 0.79715043 0.04176658
0.049579848 0.056929078 0.027031848 0.58409637 -0.078234307 0.8079052 0.039341304
0.036917932 0.067031309 0.036126915 0.64877337 -0.068087071 0.75792962 0.01949347
0.032690078 0.064786039 0.039506819 0.61781281 -0.1251276 0.77630562 0.017228499
0.0384611 0.056388043 0.033718336 0.58695906 -0.18248688 0.78878236 0.021777174
0.030680737 0.054894384 0.038558565 0.55453128 -0.26718539 0.78810346 0.015004221
0.043664593 0.066328235 0.030391749 0.67925376 0.035983387 0.73302084 0.038663905
0.042546127 0.06068765 0.031068765 0.61447263 -0.0834805 0.784509 0.025952367
0.043294702 0.050246283 0.028969096 0.51674187 -0.35162333 0.78060162 0.029801911
0.054487452 0.050179593 0.021803418 0.60394049 -0.47432113 0.64052737 0.051976051
0.047694966 0.047485333 0.025017509 0.48200494 -0.52536541 0.70118642 0.037279241
0.037843212 0.048393574 0.031267654 0.51278651 -0.41361028 0.75231415 0.021952586
0.028516104 0.046806406 0.036678817 0.50603104 -0.43385386 0.74545521 0.010809719
0.025577731 0.040356714 0.034123987 0.49748069 -0.54719204 0.67312247 0.0091353748
0.038088989 0.043703381 0.027719857 0.46370921 -0.58484083 0.6655336 0.014811456
0.032946549 0.042761534 0.03066216 0.46587905 -0.5805952 0.66773194 0.012773932
0.036556609 0.040348198 0.025106801 0.42768192 -0.72236836 0.5433895 0.017356299
0.030887404 0.038895831 0.027921712 0.43847212 -0.71129131 0.54936951 0.014157483
0.058263864 0.067581549 0.016339106 0.66688329 0.36592788 0.64912516 0.040626936
0.049524289 0.072215766 0.022376664 0.74633288 0.25217646 0.61594987 0.029769683
0.05986876 0.057768606 0.018842403 0.7728821 -0.075133517 0.63008589 0.048516992
0.055539057 0.0491964 0.018968072 0.72320157 -0.53363842 0.43841708 0.052098013
0.05044359 0.045069166 0.019080974 0.5250178 -0.74510217 0.41131383 0.044785596
0.023448959 0.047519132 0.040521968 0.47746837 -0.4052875 0.77959347 0.011122732
0.021402214 0.03968782 0.037083603 0.45351124 -0.56202543 0.69170439 0.011092726
-0.019085979 0.093306057 0.050398245 -0.26565242 0.30056953 0.91601676 0.022504596
-0.021504425 0.10630265 0.042249344 -0.19289732 0.52247232 0.83054996 0.010476575
-0.031078236 0.10409284 0.041501682 -0.14931826 0.44211543 0.88444221 0.023766011
-0.022853984 0.098290056 0.0464129 -0.256125 0.38902074 0.88490838 0.021513795
-0.031852748 0.097016364 0.04385183 -0.22654127 0.30519727 0.92495066 0.032953169
-0.04334243 0.10373063 0.039760076 0.01457902 0.31941062 0.94750428 0.046463773
-0.052205946 0.1039812 0.040564839 0.090108171 0.19216391 0.97721726 0.061207641
-0.041914344 0.097054459 0.042773407 -0.093226239 0.24812576 0.96423155 0.027052328
-0.051890377 0.096861407 0.042713691 -0.021226564 0.13892184 0.99007583 0.043040015
-0.020613285 0.08635053 0.052553825 -0.35424504 0.1493393 0.92315125 0.035063151
-0.026426509 0.083071403 0.048667107 -0.34934771 0.042750217 0.93601739 0.035896767
-0.020084903 0.077429749 0.052056257 -0.39712659 -0.034338489 0.91712123 0.024197116
-0.025909591 0.089581542 0.048649225 -0.30453372 0.16827638 0.93751919 0.038409371
-0.032380082 0.087136105 0.045734562 -0.27080187 0.086809531 0.95871294 0.038150072
-0.025672391 0.074879445 0.04722451 -0.39368826 -0.095943183 0.91422343 0.023059661
-0.032608744 0.076671146 0.04396981 -0.32763767 -0.11149645 0.93820155 0.025349066
-0.041966885 0.086939707 0.044343315 -0.16592501 0.019269304 0.98595011 0.02868928
-0.051758584 0.086871929 0.04450614 -0.13034539 -0.03734827 0.99076498 0.022300379
-0.041854043 0.076772168 0.042320155 -0.22902456 -0.17755137 0.95709103 0.028967494
-0.051599566 0.077139698 0.041967425 -0.21165329 -0.25249439 0.944166 0.0266093
-0.061310958 0.10391386 0.041447584 0.018870639 -0.0033561073 0.9998163 0.09294273
-0.072803505 0.1095612 0.044855058 -0.14002419 -0.24851061 0.95845485 0.10157217
-0.06164759 0.097006746 0.042030573 -0.11743699 -0.067794122 0.9907636 0.059433848
-0.069622204 0.096536845 0.040125784 -0.33499742 -0.18784598 0.9233042 0.067351453
-0.079967216 0.11123115 0.043585144 -0.42270964 -0.34111094 0.83961886 0.096169971
-0.061730139 0.08685597 0.043829113 -0.20896673 -0.12647778 0.9697094 0.035604738
-0.069962882 0.087521799 0.041215643 -0.4015865 -0.17613026 0.89872491 0.046905912
-0.061280478 0.077625252 0.041867029 -0.2955153 -0.30958411 0.90378559 0.037163019
-0.068526484 0.080181375 0.040929649 -0.41933444 -0.30148813 0.8563081 0.040270619
-0.0181756 0.067954384 0.050051846 -0.36571673 -0.11426908 0.92368495 0.024139283
-0.017141191 0.059064552 0.049001832 -0.32601506 -0.061761674 0.94334495 0.036504161
-0.023711272 0.066361904 0.045601711 -0.41431546 -0.084056281 0.90624344 0.024530083
-0.033977952 0.06779737 0.040900066 -0.355353 -0.11784075 0.92727441 0.03516376
-0.022007253 0.056519799 0.046080515 -0.34848651 0.02060849 0.93708718 0.037420761
-0.035683013 0.060651276 0.039325476 -0.34519893 0.030149618 0.93804514 0.042085022
-0.040314574 0.067233652 0.038817499 -0.2981163 -0.17413199 0.93851197 0.049537364
-0.0483099 0.07115531 0.039531283 -0.25264037 -0.25007588 0.9346844 0.059538532
-0.039361835 0.059302535 0.037968311 -0.32525557 0.070591182 0.94298762 0.053069837
-0.020979434 0.044622876 0.049263116 -0.14510716 0.29202348 0.9453392 0.044503096
-0.028297769 0.042997438 0.047861464 -0.16045192 0.50188851 0.8499195 0.03967157
-0.021196866 0.039546721 0.051203392 -0.01756621 0.37885094 0.925291 0.050204635
-0.029994365 0.039267026 0.050656121 -0.095326856 0.52511865 0.8456732 0.035575274
-0.022093672 0.049856514 0.047025293 -0.26199991 0.19057316 0.94606441 0.04049854
-0.031596921 0.04660859 0.044125859 -0.25820845 0.46448573 0.84710175 0.037204094
-0.035538979 0.040073089 0.048442986 -0.15848164 0.68211216 0.71386737 0.02973767
-0.042249404 0.045063537 0.042244535 -0.27444813 0.61778021 0.73690289 0.035123743
-0.051072028 0.043833788 0.041137502 -0.28822559 0.75674486 0.58673948 0.056149207
-0.043024205 0.040752079 0.04679095 -0.21072617 0.73226893 0.64759302 0.03038983
-0.052074332 0.039549835 0.046809029 -0.18658775 0.85644472 0.48133928 0.0447543
-0.057493001 0.042957373 0.038299255 -0.3779766 0.79792947 0.46951279 0.0904333
-0.060591225 0.038758386 0.043840107 -0.33049119 0.81111127 0.48257032 0.036268827
-0.024244051 0.11026238 0.038962506 -0.15183885 0.57716125 0.8023901 0.017434781
-0.032373171 0.10871127 0.037848402 -0.11112191 0.52924472 0.84116107 0.023142155
-0.041194215 0.10826381 0.037521508 0.058240049 0.4375799 0.89729142 0.043484226
-0.051609337 0.10914385 0.038604099 0.1822872 0.27335066 0.94448441 0.070292212
-0.061407607 0.10856482 0.041427895 0.10577062 0.044267565 0.99340475 0.099071436
-0.07298737 0.10481142 0.041221049 -0.30810088 -0.22215573 0.92505175 0.11992968
-0.074459001 0.097820558 0.038079135 -0.46347135 -0.23272522 0.85500485 0.084141508
-0.081422687 0.1038528 0.035631984 -0.69475567 -0.30704898 0.65041178 0.092026457
-0.080380939 0.096691072 0.03379745 -0.71440762 -0.26066428 0.64936578 0.063353501
-0.085973769 0.10471547 0.028124521 0.8902418 0.26585478 -0.36985233 0.075387619
-0.087756716 0.10300826 0.021110091 0.9579103 0.19278701 -0.2126994 0.039476894
-0.084878683 0.097194128 0.027525069 0.88029897 0.26053295 -0.3964799 0.051439136
-0.086842358 0.096816882 0.02223276 0.93700349 0.2196732 -0.2716029 0.028386837
-0.074619971 0.086267173 0.038114414 -0.56137335 -0.24406631 0.79075378 0.04173775
-0.063795529 0.074035801 0.037664775 -0.42316139 -0.39934316 0.81330162 0.052719239
-0.072360173 0.076354779 0.036527913 -0.54778951 -0.45661134 0.70102262 0.033293057
-0.076371819 0.072565675 0.028726952 0.660236 0.60027325 -0.45139831 0.025045499
-0.079857767 0.087127388 0.034137301 0.72396427 0.21746059 -0.65466529 0.038357928
-0.07891003 0.079375975 0.032468662 0.70542783 0.39617154 -0.58772421 0.033418272
-0.085124031 0.086597033 0.027184097 0.87148839 0.21104273 -0.44268376 0.027091514
-0.087169319 0.089436129 0.022156926 0.90021747 0.21758857 -0.37717861 0.024644241
-0.08144553 0.07694333 0.026120994 0.78223884 0.49256042 -0.38142711 0.032122161
-0.088643983 0.10726174 0.019800544 0.98900491 0.10755906 -0.10149059 0.049133912
-0.088868625 0.10461832 0.01797325 0.97611713 0.16087545 -0.14599472 0.036386125
-0.08824715 0.098789796 0.017042512 0.97643131 0.20577618 -0.065100528 0.02983916
-0.086810708 0.082897231 0.018838219 0.91471064 0.35384178 -0.19519325 0.029004458
-0.088386536 0.089421868 0.018537326 0.92067856 0.2486563 -0.30086714 0.023098404
-0.083284266 0.07586202 0.018015299 0.8323952 0.53410041 -0.14783435 0.028856011
-0.082496636 0.074676327 0.0071163652 0.81263191 0.571576 0.11371109 0.021366004
-0.027869189 0.064021334 0.04274518 -0.3943626 -0.059101488 0.91705245 0.029032864
-0.031461693 0.065966941 0.041860048 -0.3986339 -0.10561294 0.91100872 0.031755172
-0.027688839 0.056600925 0.043143574 -0.3547785 0.080295078 0.93149608 0.035316087
-0.032850988 0.056808192 0.040493041 -0.36595178 0.11211227 0.92385614 0.043135568
-0.044931471 0.064792439 0.037375223 -0.33905914 -0.17533177 0.92428225 0.081637785
-0.051827971 0.066952124 0.036410708 -0.35799155 -0.31408262 0.8793146 0.090519503
-0.041659743 0.055197455 0.036925148 -0.37794715 0.19001679 0.90611786 0.080987245
-0.048973072 0.056854788 0.033691112 -0.54116076 -0.0077889152 0.84088308 0.14518002
-0.057926077 0.060654294 0.032337297 -0.63763541 -0.30802158 0.70607632 0.1455183
-0.056570452 0.05721698 0.029234402 -0.7535249 -0.12259481 0.64588761 0.15004733
-0.034979306 0.050717518 0.041358452 -0.29777244 0.35086519 0.88782048 0.038977988
-0.041825231 0.049647484 0.039521433 -0.31942022 0.44638282 0.83589059 0.046002101
-0.05029941 0.049357112 0.036123678 -0.51496857 0.52368671 0.67864543 0.14866671
-0.054729734 0.05089375 0.030831804 0.69064534 -0.39114437 -0.60828871 0.14791873
-0.05776168 0.052380752 0.015191246 0.88138729 -0.18601418 -0.43422943 0.12375542
-0.058153857 0.052248292 0.010661723 -0.56488359 0.010161675 0.82510805 0.13923822
-0.056897983 0.049443733 0.011986871 0.91618758 -0.21958905 -0.33523268 0.17887983
-0.05756842 0.050721709 0.0096553592 0.9333365 0.023710709 -0.35821888 0.17887983
-0.060933113 0.068620019 0.03451689 -0.47701985 -0.41290122 0.77586383 0.081233457
-0.068910427 0.070521072 0.031849191 -0.59735256 -0.52843344 0.60326445 0.051253751
-0.062750608 0.063371979 0.0268228 0.71254325 0.45259356 -0.53613538 0.11846893
-0.0704083 0.067391053 0.024668811 0.63468564 0.61334163 -0.47009161 0.045542326
-0.06170531 0.059928786 0.023399927 0.80665743 0.36891058 -0.46174538 0.11530489
-0.065333769 0.062686503 0.018998368 0.79592121 0.51161492 -0.32366595 0.11246081
-0.07854633 0.071005352 0.02127051 0.71715093 0.65503895 -0.23794653 0.023719881
-0.057624009 0.045865215 0.034373403 0.57265097 -0.62683541 -0.52834481 0.14540613
-0.065369815 0.03948972 0.037895259 0.41832626 -0.85358673 -0.31047201 0.099952094
-0.070443258 0.038558479 0.035025969 0.31157452 -0.94185704 -0.12580419 0.10727265
-0.072259456 0.065404892 0.018341163 0.62472057 0.58150864 -0.52112561 0.05239132
-0.061876595 0.058887217 0.019033082 0.9016248 0.29784679 -0.31362393 0.12554726
-0.066220105 0.062441412 0.018235341 0.76704568 0.53336465 -0.35659933 0.10597201
-0.057698727 0.050044701 0.0087661538 0.19844656 -0.70986432 0.67580444 0.12867424
-0.079173878 0.070693299 0.017706001 0.73774159 0.65807521 -0.15058018 0.023945983
-0.060963497 0.044385064 0.010866932 0.6349991 -0.76866651 -0.076993406 0.16938201
-0.065259069 0.041977379 0.010582522 0.43597952 -0.87392306 -0.21489616 0.15849149
-0.067194492 0.040642239 0.013226437 0.37969303 -0.9200564 -0.096588694 0.16563222
-0.071502157 0.039358769 0.011840615 0.27149788 -0.95176446 -0.14294505 0.14605269
-0.059559748 0.046789929 0.0081603779 0.74506557 -0.59295154 0.30542716 0.18724726
-0.065393507 0.042487677 0.0093757715 0.46858555 -0.85617119 -0.21771191 0.18963812
-0.07275866 0.040277988 0.008352695 0.23550771 -0.91025335 -0.34055099 0.16528499
-0.016656691 0.18373349 -0.019774709 0.763035 -0.033422243 0.64549243 0.017217632
-0.0154291 0.17458528 -0.019182364 0.61805344 0.31356838 0.72089165 0.01298956
-0.016621469 0.16232803 -0.010122051 0.35163122 0.55098087 0.75681937 0.014465156
-0.016209904 0.16059309 -0.0091589037 0.31925961 0.56992662 0.7571373 0.013457117
-0.013560613 0.16691703 -0.015699018 0.42248327 0.58040082 0.69616288 0.012641879
-0.013776042 0.16120502 -0.010504131 0.31022286 0.60976005 0.72935206 0.014760097
-0.013764029 0.18411182 -0.023477934 0.7917248 0.046648394 0.6090942 0.016750464
-0.011830787 0.17688698 -0.023596842 0.67064619 0.31443059 0.67183858 0.017217632
-0.0090075918 0.16992965 -0.021337572 0.48748794 0.58049971 0.65220821 0.017217632
-0.025783872 0.1825949 -0.0099796252 0.68709469 -0.1058601 0.71881467 0.016783627
-0.026908804 0.18274777 -0.0088925976 0.67716885 -0.12249163 0.72556061 0.016783627
-0.026275733 0.17915134 -0.009828697 0.65956604 -0.018972768 0.75140715 0.016783627
-0.031482436 0.17574641 -0.0055663083 0.58077234 0.057894718 0.81200475 0.014698346
-0.020621253 0.18437563 -0.015242431 0.73700631 -0.12108073 0.66495198 0.013499022
-0.021306375 0.17646807 -0.014517721 0.66514826 0.12329533 0.73646182 0.012986441
-0.026311185 0.1727751 -0.0088002542 0.57716358 0.17544794 0.7975589 0.01580135
-0.038848896 0.17359032 -0.0012791149 0.47515327 0.11691084 0.8721016 0.012075084
-0.02288088 0.16405749 -0.0078184875 0.44140014 0.39324194 0.80655235 0.015061744
-0.03120611 0.16669734 -0.0042528179 0.48243618 0.22773165 0.84580946 0.012141675
-0.02325286 0.15879875 -0.0049127266 0.35836369 0.43881887 0.82402271 0.015177736
-0.03052788 0.15758403 -0.0015749123 0.40448123 0.31778717 0.85755831 0.011874099
-0.020650486 0.16875097 -0.011563919 0.52638888 0.35697624 0.77167523 0.016092977
-0.02608446 0.1716895 -0.0086947838 0.56188756 0.20196153 0.80218071 0.01580135
-0.041623496 0.16843024 -0.00017731091 -0.062987469 0.64401805 0.76241285 0.072165996
-0.048484527 0.1683079 0.00072813086 -0.040841926 0.57839698 0.81473237 0.071559452
-0.037027355 0.16159309 0.00037970208 0.41378492 0.24914487 0.87561911 0.011378513
-0.067317225 0.1596531 -0.0073408224 0.27641863 -0.86035204 -0.42823726 0.029496903
-0.070849635 0.15743622 -0.0065322639 0.22102906 -0.87345755 -0.43384102 0.02418646
-0.066284999 0.16351877 -0.017478677 0.27675486 -0.88098782 -0.38375404 0.0099229896
-0.070688032 0.16188829 -0.01671733 0.25280565 -0.87671608 -0.40921652 0.0099229896
-0.066577986 0.16160782 -0.013019154 0.30336705 -0.8619743 -0.40616351 0.0070478823
-0.072752655 0.15929842 -0.012405585 0.2291154 -0.88334465 -0.40891117 0.0079233879
-0.076929331 0.16164689 -0.019438427 0.76218307 -0.54963005 -0.34202883 0.0091950353
-0.077187695 0.15854098 -0.01493558 0.61377048 -0.69392091 -0.37650973 0.010793683
-0.073713049 0.1731431 -0.037808429 0.16466673 -0.87009096 -0.46457136 0.0082471324
-0.077540956 0.1720892 -0.039233845 0.54381824 -0.70960593 -0.44801909 0.0096968189
-0.065900095 0.16562867 -0.025129264 -0.6046254 -0.74049795 -0.29341251 0.0094166175
-0.072078608 0.16768113 -0.024800362 0.10744147 -0.89415824 -0.43466929 0.0080960905
-0.065993398 0.16799529 -0.030955989 -0.57788318 -0.75253826 -0.31581196 0.0070144571
-0.073447704 0.17050613 -0.032046821 0.22624685 -0.86871058 -0.44062939 0.0070144571
-0.077780791 0.16445942 -0.02588263 0.7472223 -0.56972367 -0.34216046 0.0094166175
-0.078003451 0.16100548 -0.020990057 0.82124281 -0.4756588 -0.31513315 0.0077282777
-0.078193873 0.16878004 -0.034671329 0.66629636 -0.64040148 -0.38201454 0.0082471324
-0.033594806 0.15219171 0.0015821081 0.41766861 0.3156077 0.8520239 0.011050788
-0.066094927 0.17417686 -0.047141943 -0.64637119 -0.67729056 -0.35139969 0.011411002
-0.071989298 0.17677258 -0.045049988 -0.18337919 -0.84421527 -0.50365931 0.012450931
-0.069237024 0.18210942 -0.05496975 -0.47991067 -0.64824992 -0.59114951 0.013502272
-0.065029748 0.17770182 -0.054808561 -0.71347255 -0.55071986 -0.43320262 0.013502272
-0.069923721 0.17996538 -0.051925249 -0.42183551 -0.71655011 -0.55552745 0.013252333
-0.07793045 0.17524511 -0.044356421 0.4456917 -0.72781575 -0.52119392 0.010682993
