VERSION 0.7
FIELDS x y z
SIZE 4 4 4
TYPE F F F
COUNT 1 1 1
WIDTH 1367
HEIGHT 1
VIEWPOINT 0.0 0.0 0.0 1.0 0.0 0.0 0.0
POINTS 1367
DATA ascii
715256.3750 2946141.5000 984.6320 
715256.3750 2946034.5000 947.9760 
715256.3750 2946014.7500 949.1830 
715256.3750 2946142.0000 984.8930 
715256.3750 2946033.7500 947.9550 
715256.3750 2946015.2500 949.3810 
715256.4375 2945963.7500 937.4920 
715256.4375 2945963.2500 937.4350 
715256.4375 2946129.7500 978.0850 
715256.4375 2945998.7500 950.0890 
715256.4375 2946016.0000 949.8250 
715256.4375 2945998.2500 950.1570 
715256.4375 2946143.0000 985.2500 
715256.4375 2946142.5000 985.2680 
715256.4375 2945997.7500 950.1630 
715256.4375 2946130.5000 978.4140 
715256.4375 2945980.2500 944.4050 
715256.4375 2946098.5000 958.2160 
715256.4375 2946099.5000 958.3400 
715256.5000 2945973.0000 939.5900 
715256.5000 2946099.0000 958.3390 
715256.5000 2945969.5000 938.9310 
715256.5000 2946100.0000 958.4890 
715256.5000 2945970.0000 939.0970 
715256.5000 2946100.5000 958.6860 
715256.5000 2946101.5000 958.8920 
715256.5000 2945968.5000 938.9550 
715256.5000 2946101.0000 958.8250 
715256.5000 2945969.0000 939.0780 
715256.5000 2946102.0000 959.0330 
715256.6250 2946031.0000 949.1610 
715256.6875 2946114.7500 966.2570 
715256.6875 2946032.0000 949.5770 
715256.6875 2946030.5000 949.4980 
715256.6875 2946115.2500 966.6310 
715256.7500 2946115.7500 966.6330 
715256.7500 2945994.0000 948.9060 
715256.7500 2945992.5000 948.9070 
715256.7500 2946116.2500 966.5280 
715256.7500 2945992.0000 948.9440 
715256.7500 2945985.2500 947.3080 
715256.7500 2945985.7500 947.3960 
715256.7500 2946140.5000 984.0630 
715256.7500 2945991.5000 948.7400 
715256.7500 2946107.5000 961.8350 
715256.7500 2945988.5000 948.0790 
715256.7500 2946108.0000 962.0110 
715256.7500 2945990.0000 948.3840 
715256.8125 2945989.0000 948.2710 
715256.8125 2945989.5000 948.3510 
715256.8125 2946141.0000 984.6140 
715256.8125 2945990.5000 948.5800 
715256.8125 2946013.7500 948.6330 
715256.8125 2945996.2500 949.4310 
715256.8125 2946043.5000 944.1320 
715256.8750 2946015.2500 949.0350 
715256.8750 2946014.2500 948.7710 
715256.8750 2946141.5000 984.5640 
715256.8750 2946013.2500 948.8240 
715256.8750 2946129.2500 977.7250 
715256.8750 2946016.0000 949.3450 
715256.8750 2945997.7500 949.9330 
715256.8750 2945998.2500 949.9550 
715256.8750 2945998.7500 949.9330 
715256.8750 2946129.7500 978.0030 
715256.9375 2946142.0000 985.0360 
715256.9375 2946130.5000 978.2940 
715256.9375 2945963.7500 937.5510 
715256.9375 2946099.5000 958.4600 
715257.0000 2945963.2500 937.7070 
715257.0000 2945973.5000 939.6000 
715257.0000 2945964.2500 938.2120 
715257.0000 2945967.5000 938.8100 
715257.0625 2946066.5000 949.6700 
715257.0625 2946067.0000 950.0310 
715257.1250 2946031.5000 949.2720 
715257.1250 2946030.5000 949.3220 
715257.1875 2946124.5000 975.3570 
715257.1875 2945993.5000 948.7030 
715257.1875 2945993.2500 948.7790 
715257.2500 2945985.2500 947.2700 
715257.2500 2946107.5000 961.7280 
715257.2500 2945992.7500 949.0020 
715257.2500 2945994.5000 948.9670 
715257.2500 2946107.0000 961.7040 
715257.2500 2945992.2500 948.9390 
715257.2500 2945994.2500 948.9980 
715257.2500 2945996.7500 949.2450 
715257.2500 2945996.2500 949.1930 
715257.2500 2945991.5000 948.7050 
715257.3125 2946108.0000 962.0750 
715257.3125 2946044.0000 944.7500 
715257.3125 2946046.0000 944.7100 
715257.3125 2945991.0000 948.6540 
715257.3125 2945988.5000 948.1680 
715257.3125 2945990.0000 948.3440 
715257.3125 2945989.0000 948.3410 
715257.3125 2945989.5000 948.4030 
715257.3125 2945995.5000 949.2290 
715257.3125 2946141.0000 984.6410 
715257.3125 2946128.7500 977.2800 
715257.3125 2945997.7500 949.6520 
715257.3125 2945998.2500 949.7310 
715257.3750 2946015.2500 948.7910 
715257.3750 2946129.2500 977.5850 
715257.3750 2946141.5000 984.8800 
715257.3750 2946130.0000 977.9310 
715257.4375 2946130.5000 978.2300 
715257.5000 2945963.7500 938.0520 
715257.5000 2945964.2500 938.3620 
715257.5625 2946065.5000 949.5360 
715257.5625 2946066.0000 949.8780 
715257.6250 2946135.7500 980.7410 
715257.6250 2946067.0000 950.4300 
715257.6250 2946136.5000 980.9550 
715257.6250 2946066.5000 950.4050 
715257.6875 2946043.5000 943.9910 
715257.6875 2946125.0000 975.0960 
715257.6875 2946126.0000 975.7250 
715257.6875 2945993.7500 948.7220 
715257.7500 2945996.7500 948.9600 
715257.7500 2945994.7500 948.8410 
715257.7500 2945994.2500 948.8530 
715257.7500 2946094.0000 959.3610 
715257.7500 2946127.2500 976.3450 
715257.7500 2945996.2500 949.0190 
715257.7500 2946013.2500 947.8340 
715257.7500 2946013.7500 947.9030 
715257.7500 2946107.0000 961.7810 
715257.8125 2946014.2500 948.0320 
715257.8125 2946046.5000 944.7670 
715257.8125 2946046.0000 944.6200 
715257.8125 2946107.5000 961.9820 
715257.8125 2945995.7500 949.1120 
715257.8125 2945985.7500 947.5020 
715257.8125 2946014.7500 948.2400 
715257.8125 2946128.7500 977.1560 
715257.8125 2945988.0000 947.9940 
715257.8125 2945992.0000 948.7320 
715257.8125 2945991.5000 948.5880 
715257.8125 2945986.2500 947.6590 
715257.8125 2945988.2500 947.9980 
715257.8125 2945991.0000 948.4650 
715257.8125 2945993.0000 948.9650 
715257.8125 2945989.0000 948.0750 
715257.8125 2945989.5000 948.1750 
715257.8125 2945990.0000 948.2390 
715257.8125 2945986.7500 947.7660 
715257.8750 2946129.2500 977.3720 
715257.8750 2945992.5000 949.0660 
715257.8750 2946130.0000 977.7050 
715257.8750 2946130.5000 978.0700 
715257.8750 2946131.0000 978.2460 
715258.0000 2945963.7500 937.9420 
715258.0625 2945964.2500 938.3300 
715258.0625 2945963.2500 938.0670 
715258.0625 2946029.0000 948.8760 
715258.0625 2946135.7500 980.4880 
715258.1250 2946037.2500 946.1250 
715258.1250 2946124.5000 975.0360 
715258.1250 2946124.0000 974.9600 
715258.1875 2946126.0000 975.5460 
715258.1875 2946123.5000 974.9100 
715258.1875 2946092.5000 958.9630 
715258.1875 2946126.5000 975.8550 
715258.1875 2945994.7500 948.6770 
715258.1875 2946092.0000 959.0780 
715258.2500 2946127.2500 976.1140 
715258.2500 2945994.2500 948.7070 
715258.2500 2946138.0000 981.8740 
715258.2500 2946046.5000 944.4220 
715258.2500 2945997.2500 948.9460 
715258.2500 2946013.7500 947.6310 
715258.2500 2945996.2500 948.8860 
715258.2500 2945996.7500 948.9740 
715258.2500 2946138.5000 982.1160 
715258.2500 2946013.2500 947.6230 
715258.2500 2945993.5000 948.6580 
715258.2500 2946128.2500 976.8270 
715258.2500 2946014.7500 947.8800 
715258.3125 2946043.5000 944.4230 
715258.3125 2945995.5000 948.9760 
715258.3125 2945993.0000 948.7140 
715258.3125 2946129.2500 977.1460 
715258.3125 2946014.2500 947.9950 
715258.3125 2945991.0000 948.4160 
715258.3125 2945991.5000 948.5380 
715258.3125 2945992.0000 948.6760 
715258.3125 2946129.7500 977.3080 
715258.3125 2945990.5000 948.3250 
715258.3125 2945992.5000 948.8170 
715258.3750 2946012.7500 948.2570 
715258.3750 2946130.5000 977.5680 
715258.3750 2945989.5000 948.1930 
715258.4375 2946142.0000 984.5510 
715258.5000 2945963.2500 937.6920 
715258.5625 2946065.0000 949.4530 
715258.5625 2946060.2500 948.7620 
715258.5625 2946123.5000 974.3790 
715258.6250 2946124.0000 974.7590 
715258.6250 2946048.7500 944.1670 
715258.6250 2946048.2500 944.1690 
715258.6250 2946047.5000 944.1430 
715258.6875 2946126.5000 975.6340 
715258.6875 2946047.0000 944.1400 
715258.6875 2946127.7500 976.1850 
715258.6875 2946128.2500 976.4640 
715258.7500 2946092.5000 959.2300 
715258.7500 2946094.7500 959.4990 
715258.7500 2945994.5000 948.5540 
715258.7500 2946093.0000 959.3470 
715258.7500 2945998.2500 948.9710 
715258.7500 2945997.7500 948.9190 
715258.7500 2946128.7500 976.7620 
715258.7500 2946013.7500 947.3820 
715258.7500 2946138.5000 982.1400 
715258.7500 2946094.2500 959.7200 
715258.7500 2946093.7500 959.6390 
715258.7500 2945996.7500 948.9310 
715258.7500 2946013.2500 947.4960 
715258.8125 2946129.2500 976.9480 
715258.8125 2945993.5000 948.6660 
715258.8125 2946014.2500 947.6610 
715258.8125 2945993.0000 948.6540 
715258.8125 2945995.0000 948.8110 
715258.8125 2946106.5000 961.9270 
715258.8125 2946129.7500 977.2300 
715258.8125 2945991.0000 948.4290 
715258.8125 2946130.5000 977.5870 
715258.8125 2945991.5000 948.5480 
715258.8750 2946107.0000 962.2060 
715258.8750 2945990.5000 948.3340 
715258.8750 2946131.0000 977.8440 
715258.8750 2945989.5000 948.1590 
715258.8750 2946107.7500 962.3570 
715258.8750 2946069.2500 952.3760 
715258.8750 2946070.0000 952.5970 
715258.8750 2946070.5000 952.8420 
715259.0625 2946036.2500 945.9200 
715259.0625 2946035.7500 945.9530 
715259.0625 2946124.5000 974.5310 
715259.0625 2946036.7500 945.9330 
715259.0625 2946122.7500 974.0760 
715259.1250 2946064.5000 949.5620 
715259.1250 2946047.5000 943.7790 
715259.1250 2946048.0000 943.8220 
715259.1250 2946046.5000 943.6970 
715259.1875 2946065.0000 950.1160 
715259.1875 2946126.5000 975.5270 
715259.1875 2946037.7500 946.0790 
715259.2500 2946128.2500 976.4110 
715259.2500 2946138.0000 981.7680 
715259.2500 2946115.2500 966.8080 
715259.2500 2945995.0000 948.5540 
715259.2500 2946129.2500 976.8340 
715259.2500 2946094.2500 959.8610 
715259.3125 2945994.5000 948.5400 
715259.3125 2946092.7500 959.7080 
715259.3125 2946093.7500 959.8490 
715259.3125 2946093.2500 959.8320 
715259.3125 2946013.7500 947.6020 
715259.3125 2946129.7500 977.1310 
715259.3125 2946116.0000 967.1900 
715259.3125 2946043.5000 944.1240 
715259.3125 2946043.0000 944.1930 
715259.3125 2945991.0000 948.3040 
715259.3125 2946130.5000 977.4980 
715259.3125 2946106.5000 962.0150 
715259.3125 2945975.5000 942.3960 
715259.3125 2946107.2500 962.1800 
715259.3125 2946107.7500 962.3010 
715259.3750 2946108.2500 962.5240 
715259.3750 2946106.0000 962.0020 
715259.3750 2946105.5000 961.8910 
715259.3750 2945993.0000 948.7350 
715259.3750 2946069.5000 952.5900 
715259.3750 2946116.5000 967.7010 
715259.3750 2946132.0000 978.1670 
715259.3750 2946070.0000 952.8070 
715259.4375 2946132.5000 978.3340 
715259.4375 2946142.0000 984.4200 
715259.4375 2945976.2500 943.1720 
715259.4375 2946071.0000 953.2950 
715259.4375 2946070.5000 953.2260 
715259.4375 2946133.0000 978.5050 
715259.5000 2946036.7500 945.4680 
715259.5000 2946035.7500 945.5110 
715259.5000 2946143.7500 985.5230 
715259.5625 2946048.5000 943.5580 
715259.5625 2946144.2500 985.7990 
715259.5625 2946123.2500 974.0740 
715259.5625 2946112.0000 964.8840 
715259.6250 2946124.0000 974.3750 
715259.6250 2946047.0000 943.4900 
715259.6250 2946046.5000 943.3730 
715259.6250 2946124.5000 974.6070 
715259.6250 2946045.5000 943.3120 
715259.6250 2946125.0000 974.7010 
715259.6250 2946045.0000 943.2550 
715259.6250 2946063.5000 949.4510 
715259.6250 2946125.5000 974.8640 
715259.6250 2946064.5000 949.7080 
715259.6250 2946034.2500 945.8940 
715259.6875 2946126.7500 975.4850 
715259.6875 2946127.2500 975.7360 
715259.6875 2946127.7500 975.8960 
715259.6875 2946065.0000 950.3830 
715259.7500 2946128.7500 976.5650 
715259.8125 2946131.0000 977.4020 
715259.8750 2946107.2500 962.2060 
715259.8750 2946107.7500 962.3960 
715259.8750 2945975.7500 942.5750 
715259.8750 2946106.7500 962.1760 
715259.8750 2946131.5000 978.0470 
715259.8750 2946108.2500 962.6580 
715259.8750 2945993.0000 948.6190 
715259.8750 2946071.5000 952.9500 
715259.8750 2945973.5000 942.2240 
715259.8750 2946069.0000 952.5010 
715259.8750 2946106.2500 962.1670 
715259.8750 2945974.5000 942.4840 
715259.8750 2946132.0000 978.1830 
715259.8750 2946105.0000 961.9500 
715259.8750 2946105.5000 962.0570 
715259.9375 2946035.2500 944.9490 
715259.9375 2945976.2500 943.0910 
715259.9375 2946108.7500 962.9740 
715259.9375 2946036.7500 945.1790 
715259.9375 2946132.5000 978.4210 
715259.9375 2945972.5000 942.3280 
715259.9375 2946109.2500 963.2990 
715260.0000 2946070.5000 953.3740 
715260.0000 2946071.0000 953.5060 
715260.0000 2946133.0000 978.6650 
715260.0000 2946143.2500 985.1300 
715260.0625 2946143.7500 985.4360 
715260.0625 2946034.2500 945.3620 
715260.0625 2946047.5000 943.2580 
715260.0625 2946046.5000 943.1270 
715260.0625 2946045.5000 943.0340 
715260.0625 2946046.0000 943.1140 
715260.0625 2946123.2500 973.9220 
715260.0625 2946124.0000 974.2290 
715260.1250 2946044.5000 943.0100 
715260.1250 2946061.7500 948.9150 
715260.1250 2946144.2500 985.8030 
715260.1250 2946062.5000 949.0740 
715260.1250 2946124.5000 974.5160 
715260.1250 2946125.0000 974.6390 
715260.1250 2946059.7500 948.7580 
715260.1250 2946125.5000 974.8240 
715260.1250 2946033.7500 945.4160 
715260.1250 2946111.5000 964.9600 
715260.1250 2946059.2500 948.7010 
715260.1250 2946123.0000 974.4050 
715260.1250 2946063.5000 949.6730 
715260.1875 2946112.2500 965.2790 
715260.1875 2946044.0000 943.2490 
715260.1875 2945958.7500 934.0550 
715260.1875 2946064.0000 950.0140 
715260.1875 2946113.2500 965.8130 
715260.1875 2946112.7500 965.7310 
715260.1875 2946137.5000 981.5500 
715260.2500 2946138.7500 982.0420 
715260.2500 2946000.2500 947.4830 
715260.2500 2946128.7500 976.4590 
715260.2500 2946043.0000 943.5570 
715260.2500 2946114.7500 966.5440 
715260.3125 2946129.2500 976.6830 
715260.3125 2946042.5000 943.7910 
715260.3125 2946129.7500 976.9140 
715260.3125 2946115.5000 967.0630 
715260.3750 2946036.7500 944.9980 
715260.3750 2946103.0000 961.4920 
715260.3750 2946108.2500 962.7340 
715260.3750 2946102.5000 961.5640 
715260.4375 2946131.5000 978.1060 
715260.4375 2946068.5000 952.5560 
715260.4375 2946108.7500 962.9860 
715260.4375 2946104.0000 961.8330 
715260.4375 2946104.5000 961.9070 
715260.4375 2946105.7500 962.1790 
715260.4375 2946106.7500 962.4880 
715260.4375 2946132.0000 978.3080 
715260.4375 2946107.2500 962.7350 
715260.4375 2946070.5000 953.2890 
715260.4375 2946106.2500 962.5080 
715260.4375 2946071.0000 953.4320 
715260.4375 2946132.5000 978.5000 
715260.4375 2946105.2500 962.2580 
715260.4375 2946142.5000 984.5090 
715260.4375 2945974.7500 942.8520 
715260.5000 2945975.2500 943.0540 
715260.5000 2945973.7500 942.8130 
715260.5000 2945973.0000 942.7680 
715260.5000 2946143.2500 985.0850 
715260.5000 2945975.7500 943.4320 
715260.5625 2946046.0000 942.9360 
715260.5625 2946044.5000 942.6510 
715260.5625 2946143.7500 985.3510 
715260.5625 2946046.5000 943.0400 
715260.6250 2946144.2500 985.6980 
715260.6250 2946060.2500 948.8410 
715260.6250 2946044.0000 942.8360 
715260.6250 2946125.5000 974.7400 
715260.6250 2946061.5000 949.0550 
715260.6250 2946062.5000 949.2420 
715260.6250 2946062.0000 949.1570 
715260.6250 2946063.0000 949.4010 
715260.6250 2946123.0000 974.2360 
715260.6250 2946111.5000 964.9590 
715260.6250 2946059.7500 948.9640 
715260.6250 2946059.2500 948.9120 
715260.6250 2946126.0000 975.0780 
715260.6875 2946042.5000 943.1110 
715260.6875 2946112.2500 965.3240 
715260.6875 2946127.7500 975.6810 
715260.6875 2946122.5000 974.5650 
715260.6875 2946013.7500 947.0670 
715260.7500 2946128.2500 975.9420 
715260.7500 2946015.7500 947.1850 
715260.7500 2946043.0000 943.2820 
715260.7500 2946113.2500 965.8570 
715260.7500 2946113.7500 966.0250 
715260.7500 2946014.7500 947.1620 
715260.7500 2946114.2500 966.2250 
715260.7500 2946112.7500 965.8650 
715260.7500 2946128.7500 976.3500 
715260.7500 2946015.2500 947.2540 
715260.7500 2946129.2500 976.5150 
715260.8125 2946057.7500 949.5410 
715260.8125 2946129.7500 976.9190 
715260.8125 2946115.5000 967.0560 
715260.8750 2946066.7500 951.8730 
715260.9375 2946066.2500 951.9440 
715260.9375 2946067.5000 952.3310 
715260.9375 2946068.0000 952.4440 
715260.9375 2946132.0000 978.2560 
715260.9375 2946069.0000 952.9750 
715260.9375 2946104.2500 962.1040 
715260.9375 2946001.7500 947.6420 
715260.9375 2946132.7500 978.4730 
715260.9375 2946104.7500 962.2210 
715261.0000 2946103.0000 962.1150 
715261.0000 2946142.5000 984.4570 
715261.0000 2946106.7500 962.8730 
715261.0000 2946105.2500 962.4950 
715261.0000 2946102.5000 962.2060 
715261.0000 2946106.2500 962.7760 
715261.0000 2946105.7500 962.6380 
715261.0000 2945974.7500 943.1450 
715261.0000 2946079.2500 958.5820 
715261.0000 2945970.5000 942.5290 
715261.0000 2945948.5000 928.4330 
715261.0000 2946143.2500 984.9950 
715261.0625 2945971.0000 942.7620 
715261.0625 2945973.2500 943.1340 
715261.0625 2945972.7500 943.0550 
715261.0625 2946046.0000 942.7940 
715261.0625 2946047.5000 943.2670 
715261.0625 2946046.5000 942.9170 
715261.0625 2946143.7500 985.2290 
715261.0625 2946048.2500 943.6050 
715261.1250 2946043.5000 942.5350 
715261.1250 2945992.0000 946.5930 
715261.1250 2945949.7500 929.1020 
715261.1250 2946144.2500 985.5900 
715261.1250 2946125.5000 974.8400 
715261.1875 2946060.5000 949.2530 
715261.1875 2945991.2500 946.6750 
715261.1875 2946126.0000 975.0760 
715261.1875 2946061.0000 949.4090 
715261.1875 2946062.0000 949.4950 
715261.1875 2946062.5000 949.6040 
715261.1875 2946060.0000 949.3330 
715261.1875 2946063.0000 949.7580 
715261.1875 2946063.5000 949.9290 
715261.1875 2946058.0000 949.2310 
715261.1875 2946127.7500 975.7320 
715261.2500 2946112.2500 965.5260 
715261.2500 2946015.7500 947.0540 
715261.2500 2946016.2500 947.1640 
715261.2500 2946128.2500 976.0040 
715261.2500 2946015.2500 947.0780 
715261.2500 2946113.7500 966.0690 
715261.2500 2946113.2500 966.0070 
715261.2500 2946128.7500 976.3910 
715261.2500 2946112.7500 965.9380 
715261.3125 2946114.2500 966.3240 
715261.3125 2946129.2500 976.5280 
715261.3125 2946130.0000 976.8950 
715261.3125 2945977.5000 943.2140 
715261.3750 2946115.5000 967.0950 
715261.3750 2946116.0000 967.3190 
715261.4375 2946067.0000 952.1140 
715261.4375 2946132.2500 978.3170 
715261.4375 2946078.7500 958.2620 
715261.4375 2946067.5000 952.6790 
715261.5000 2946077.7500 958.1790 
715261.5000 2946078.2500 958.2790 
715261.5000 2946079.5000 958.6260 
715261.5000 2945976.5000 943.7210 
715261.5000 2946106.2500 962.9070 
715261.5000 2946103.7500 962.5260 
715261.5000 2946105.2500 962.6850 
715261.5000 2946143.2500 984.8470 
715261.5000 2946105.7500 962.8540 
715261.5625 2946047.0000 942.8970 
715261.5625 2946143.7500 985.0950 
715261.6250 2946081.0000 959.7040 
715261.6250 2946080.0000 959.3140 
715261.6250 2946047.5000 943.3590 
715261.6250 2945991.2500 946.3540 
715261.6250 2946081.5000 959.8890 
715261.6250 2945998.5000 947.2510 
715261.6250 2945990.7500 946.4790 
715261.6875 2946125.5000 974.8270 
715261.6875 2946126.0000 975.0680 
715261.6875 2946015.2500 946.6730 
715261.6875 2946015.7500 946.8620 
715261.6875 2946016.2500 946.9580 
715261.6875 2946048.2500 944.1040 
715261.6875 2946063.0000 949.9970 
715261.7500 2946062.5000 949.9180 
715261.7500 2946055.7500 949.0170 
715261.7500 2946128.2500 976.0130 
715261.8125 2946128.7500 976.3870 
715261.8125 2946113.7500 966.2490 
715261.8125 2946129.2500 976.6210 
715261.8125 2945977.0000 943.2750 
715261.8750 2946130.0000 976.8920 
715261.9375 2946141.5000 983.7130 
715261.9375 2946142.0000 984.0260 
715261.9375 2946116.0000 967.7150 
715261.9375 2946076.7500 957.9350 
715262.0000 2946076.2500 957.8880 
715262.0000 2946077.2500 958.1250 
715262.0000 2946079.0000 958.4550 
715262.0000 2946142.5000 984.3390 
715262.0000 2946079.5000 958.6060 
715262.0000 2945976.5000 943.7050 
715262.0000 2945961.7500 936.9560 
715262.0000 2946078.5000 958.5750 
715262.0625 2945991.2500 945.9150 
715262.0625 2946078.0000 958.5670 
715262.0625 2946082.7500 959.8400 
715262.0625 2945990.7500 946.1810 
715262.0625 2946047.5000 943.1020 
715262.1250 2946082.2500 959.9820 
715262.1250 2946081.0000 959.7270 
715262.1250 2946081.7500 959.9050 
715262.1250 2946080.0000 959.3190 
715262.1250 2945989.7500 946.2570 
715262.1250 2946083.2500 960.2940 
715262.1250 2945989.2500 946.3000 
715262.1875 2945999.5000 947.3040 
715262.1875 2946083.7500 960.5720 
715262.1875 2946014.7500 946.3730 
715262.1875 2946145.2500 985.9410 
715262.1875 2946125.0000 974.6420 
715262.1875 2945949.2500 928.9560 
715262.1875 2946017.2500 946.8990 
715262.1875 2946015.7500 946.7350 
715262.1875 2946126.0000 974.9530 
715262.1875 2946048.2500 943.9150 
715262.1875 2946016.7500 946.9470 
715262.1875 2945999.0000 947.3070 
715262.2500 2945998.5000 947.2380 
715262.3125 2946128.7500 976.3380 
715262.3125 2946129.2500 976.5780 
715262.3750 2946140.5000 982.9940 
715262.3750 2946130.0000 976.8390 
715262.3750 2946141.0000 983.3490 
715262.4375 2946141.5000 983.6470 
715262.4375 2946115.0000 967.1420 
715262.4375 2946115.5000 967.4260 
715262.4375 2946142.0000 983.9350 
715262.5000 2946142.5000 984.2450 
715262.5000 2946075.7500 957.9150 
715262.5625 2945991.2500 945.8300 
715262.5625 2945961.2500 936.9040 
715262.5625 2946076.2500 958.2990 
715262.5625 2946077.0000 958.4840 
715262.5625 2945961.7500 937.2940 
715262.5625 2946077.5000 958.6760 
715262.5625 2946081.7500 959.8470 
715262.5625 2945990.2500 946.0350 
715262.5625 2946079.0000 959.0560 
715262.6250 2946078.0000 958.8960 
715262.6250 2946078.5000 959.0200 
715262.6250 2946046.5000 943.0520 
715262.6250 2945999.0000 946.8460 
715262.6250 2946079.5000 959.3500 
715262.6250 2946082.7500 960.3950 
715262.6875 2946080.0000 959.6130 
715262.6875 2946082.2500 960.3720 
715262.6875 2946145.2500 985.8760 
715262.6875 2946014.7500 946.3070 
715262.6875 2946083.2500 960.5790 
715262.6875 2946015.2500 946.4480 
715262.6875 2946016.7500 946.8220 
715262.6875 2946048.2500 943.9130 
715262.6875 2946083.7500 960.7700 
715262.6875 2946016.2500 946.7980 
715262.6875 2945969.7500 943.7850 
715262.6875 2946048.7500 944.1090 
715262.7500 2946084.2500 961.0180 
715262.7500 2945968.5000 944.2100 
715262.8125 2946129.2500 976.5140 
715262.8750 2946130.0000 976.7470 
715262.8750 2946140.5000 982.9390 
715262.8750 2946058.7500 950.6270 
715262.8750 2946141.0000 983.3090 
715262.9375 2946141.5000 983.5560 
715262.9375 2946058.2500 950.8280 
715262.9375 2946142.0000 983.7720 
715262.9375 2946115.0000 967.2180 
715262.9375 2946115.5000 967.4970 
715263.0000 2946075.2500 957.6420 
715263.0000 2945960.7500 936.6630 
715263.0625 2946076.5000 958.2540 
715263.0625 2946077.0000 958.4640 
715263.0625 2945953.5000 932.0990 
715263.0625 2946045.0000 942.5360 
715263.0625 2946047.0000 942.9740 
715263.0625 2945989.7500 945.8300 
715263.0625 2946120.0000 969.7970 
715263.1250 2946078.0000 959.0030 
715263.1250 2946120.5000 970.0730 
715263.1250 2946078.5000 959.2790 
715263.1250 2946017.2500 946.6800 
715263.1875 2946014.7500 946.2470 
715263.1875 2946046.7500 943.5000 
715263.1875 2945969.2500 943.6750 
715263.1875 2946015.2500 946.4180 
715263.1875 2945968.7500 943.7500 
715263.1875 2946016.2500 946.7620 
715263.2500 2946082.7500 960.8690 
715263.3125 2946059.7500 950.5930 
715263.3750 2946093.2500 963.6690 
715263.4375 2946059.2500 951.0200 
715263.4375 2946060.7500 951.2430 
715263.4375 2945961.7500 936.6060 
715263.4375 2946060.2500 951.2970 
715263.5000 2945961.2500 936.6730 
715263.5000 2946074.7500 957.6020 
715263.5000 2945960.7500 936.7720 
715263.5000 2946118.2500 968.9880 
715263.5000 2946076.0000 958.1300 
715263.5625 2946119.5000 969.5480 
715263.5625 2946077.0000 958.6370 
715263.5625 2946120.0000 969.7790 
715263.5625 2946041.5000 942.3420 
715263.6250 2946077.5000 958.8760 
715263.6250 2945953.2500 932.4230 
715263.6250 2946045.7500 943.0340 
715263.6250 2946120.5000 970.1590 
715263.6250 2946145.2500 985.5960 
715263.6250 2946144.7500 985.3090 
715263.6250 2946047.2500 943.4230 
715263.6875 2946014.7500 946.1630 
715263.6875 2946017.7500 946.6710 
715263.6875 2945970.0000 943.8100 
715263.6875 2946016.7500 946.5450 
715263.6875 2946046.7500 943.5580 
715263.6875 2946046.2500 943.4790 
715263.6875 2946121.0000 970.4800 
715263.6875 2946016.2500 946.5850 
715263.6875 2945969.0000 943.8990 
715263.7500 2946015.2500 946.4120 
715263.7500 2946051.7500 948.2860 
715263.8750 2946091.2500 963.4050 
715263.8750 2946089.2500 963.0710 
715263.8750 2946090.7500 963.3250 
715263.8750 2946092.2500 963.6570 
715263.8750 2946090.2500 963.2640 
715263.8750 2946089.7500 963.1680 
715263.8750 2946091.7500 963.6010 
715263.9375 2946093.0000 963.9590 
715263.9375 2946093.5000 964.2080 
715264.0000 2945960.2500 936.5840 
715264.0000 2946060.0000 951.5900 
715264.0000 2945959.7500 936.4710 
715264.0000 2946142.7500 984.2260 
715264.0000 2946061.0000 951.7950 
715264.0000 2946119.0000 968.9750 
715264.0625 2946038.0000 941.6690 
715264.0625 2946060.5000 951.8750 
715264.0625 2945990.7500 945.3330 
715264.0625 2945960.7500 937.0260 
715264.0625 2946042.0000 942.1310 
715264.0625 2946042.5000 942.1970 
715264.0625 2946037.5000 941.7180 
715264.0625 2946041.5000 942.1560 
715264.0625 2946043.0000 942.3130 
715264.0625 2946041.0000 942.2050 
715264.0625 2946056.7500 951.4530 
715264.0625 2945970.5000 943.4690 
715264.1250 2946076.0000 958.5590 
715264.1250 2945961.5000 937.5460 
715264.1250 2946043.5000 942.6320 
715264.1250 2946145.2500 985.0800 
715264.1250 2946069.5000 954.2910 
715264.1250 2946068.7500 954.1380 
715264.1250 2946120.5000 970.0610 
715264.1250 2946076.5000 958.8310 
715264.1250 2946144.2500 985.1730 
715264.1250 2946044.0000 942.8280 
715264.1250 2946121.0000 970.2950 
715264.1875 2946045.7500 943.1020 
715264.1875 2945952.5000 932.3340 
715264.1875 2946016.7500 946.3890 
715264.1875 2946014.7500 946.0610 
715264.1875 2946047.2500 943.6730 
715264.1875 2946125.2500 974.6860 
715264.1875 2946052.2500 947.9720 
715264.1875 2946046.7500 943.6950 
715264.1875 2946046.2500 943.6200 
715264.1875 2946051.7500 948.0740 
715264.3750 2946140.0000 982.7150 
715264.4375 2946140.5000 983.0610 
715264.4375 2946071.7500 956.9350 
715264.4375 2946141.0000 983.4260 
715264.4375 2946089.2500 963.5230 
715264.4375 2946090.2500 963.7130 
715264.4375 2946089.7500 963.6220 
715264.4375 2946090.7500 963.8110 
715264.4375 2946092.0000 964.0260 
715264.4375 2946091.5000 963.9200 
715264.4375 2946092.5000 964.1360 
715264.4375 2946141.5000 983.7130 
715264.4375 2946088.7500 963.5740 
715264.5000 2946037.5000 941.4610 
715264.5000 2946142.2500 984.0250 
715264.5000 2945959.7500 936.4980 
715264.5000 2945970.5000 943.2120 
715264.5000 2945960.2500 936.7120 
715264.5000 2946038.0000 941.6360 
715264.5000 2946041.5000 941.9640 
715264.5000 2946040.5000 941.8740 
715264.5000 2946041.0000 941.9640 
715264.5000 2946042.0000 942.0200 
715264.5625 2946040.0000 941.8630 
715264.5625 2945961.0000 937.0450 
715264.5625 2946042.5000 942.1170 
715264.5625 2946039.5000 941.8300 
715264.5625 2946039.0000 941.7640 
715264.5625 2945952.0000 931.7880 
715264.5625 2946143.7500 984.8890 
715264.5625 2946043.0000 942.4210 
715264.6250 2946120.0000 969.6840 
715264.6250 2946119.5000 969.4890 
715264.6250 2946118.5000 969.2200 
715264.6250 2946119.0000 969.3430 
715264.6250 2946015.7500 946.2220 
715264.6250 2946121.0000 970.2120 
715264.6250 2946144.2500 985.2100 
715264.6250 2946043.7500 942.7810 
715264.6250 2946016.2500 946.1960 
715264.6250 2945963.2500 938.5820 
715264.6875 2946044.2500 942.9180 
715264.6875 2946067.7500 954.1300 
715264.6875 2946125.2500 974.5400 
715264.6875 2946069.5000 954.9140 
715264.6875 2945953.2500 932.9540 
715264.6875 2946068.5000 954.5490 
715264.7500 2946069.0000 954.9880 
715264.8750 2945974.5000 945.0350 
715264.8750 2945956.0000 934.5890 
715264.8750 2945956.5000 934.8840 
715264.8750 2946140.0000 982.6650 
715264.9375 2946140.5000 983.0680 
715264.9375 2945991.7500 944.6370 
715264.9375 2946016.7500 945.7940 
715264.9375 2946141.0000 983.4620 
715264.9375 2945957.7500 935.6830 
715264.9375 2946088.2500 963.5090 
715265.0000 2946071.2500 956.9850 
715265.0000 2946141.7500 983.7680 
715265.0000 2946090.5000 964.0410 
715265.0000 2946071.7500 957.2750 
715265.0000 2946072.2500 957.4680 
715265.0000 2946037.5000 941.3880 
715265.0000 2946142.2500 984.0430 
715265.0000 2946073.0000 957.7380 
715265.0625 2946041.5000 941.9140 
715265.0625 2946042.0000 941.9500 
715265.0625 2946042.5000 942.0130 
715265.0625 2946040.5000 941.9150 
715265.0625 2946040.0000 941.8540 
715265.0625 2945970.0000 943.2960 
715265.0625 2946016.2500 945.8880 
715265.0625 2946039.5000 941.8270 
715265.0625 2946039.0000 941.7560 
715265.0625 2945962.0000 937.9060 
715265.0625 2946143.2500 984.6490 
715265.1250 2946118.5000 969.1380 
715265.1250 2946124.5000 973.8740 
715265.1250 2946043.0000 942.3720 
715265.1250 2946119.5000 969.5230 
715265.1250 2946143.7500 984.9080 
715265.1250 2946119.0000 969.3520 
715265.1250 2946120.5000 970.0260 
715265.1250 2946125.7500 974.2980 
715265.1250 2946043.7500 942.7630 
715265.1250 2946144.2500 985.2120 
715265.1875 2946067.2500 953.9240 
715265.1875 2946144.7500 985.3200 
715265.1875 2946125.2500 974.4000 
715265.1875 2946096.7500 966.3970 
715265.1875 2946097.7500 966.5940 
715265.2500 2945967.7500 940.8810 
715265.2500 2945952.7500 932.8890 
715265.2500 2946097.2500 966.7100 
715265.2500 2946068.5000 954.8140 
715265.2500 2945968.2500 941.1500 
715265.2500 2946045.7500 943.6720 
715265.3125 2945974.5000 944.8870 
715265.4375 2945956.0000 934.8770 
715265.4375 2945975.0000 945.3740 
715265.4375 2946140.5000 983.0530 
715265.4375 2945956.7500 935.2680 
715265.4375 2945991.7500 944.3060 
715265.4375 2946141.0000 983.4520 
715265.5000 2945957.2500 935.6660 
715265.5000 2946017.5000 946.0110 
715265.5000 2946037.0000 941.0170 
715265.5000 2945958.7500 936.2550 
715265.5625 2946072.0000 957.5660 
715265.5625 2946123.5000 973.5940 
715265.5625 2946142.2500 984.1090 
715265.5625 2945959.2500 936.7150 
715265.5625 2946118.0000 968.8590 
715265.5625 2945961.5000 937.7960 
715265.5625 2946143.2500 984.6400 
715265.6250 2946118.5000 969.1840 
715265.6250 2946119.0000 969.3400 
715265.6250 2945960.0000 937.1620 
715265.6250 2946041.0000 942.2130 
715265.6250 2946039.0000 941.8900 
715265.6250 2946120.0000 969.8080 
715265.6250 2946042.0000 942.2880 
715265.6250 2946039.5000 942.0540 
715265.6250 2945960.5000 937.3270 
715265.6250 2946124.5000 973.9300 
715265.6250 2946040.0000 942.2180 
715265.6250 2946143.7500 984.9130 
715265.6250 2946042.5000 942.4130 
715265.6250 2946100.0000 966.5570 
715265.6250 2946125.7500 974.2620 
715265.6250 2946120.7500 970.1140 
715265.6875 2946144.2500 985.2050 
715265.6875 2946145.2500 985.1130 
715265.6875 2946136.7500 980.4260 
715265.6875 2946144.7500 985.3890 
715265.6875 2946125.2500 974.4710 
715265.6875 2946068.5000 954.5800 
715265.6875 2946096.7500 966.5850 
715265.6875 2945998.2500 943.5680 
715265.6875 2946094.2500 966.1070 
715265.7500 2946097.2500 966.6950 
715265.7500 2946067.5000 954.3010 
715265.7500 2945998.7500 943.6670 
715265.7500 2946095.2500 966.2830 
715265.7500 2946095.7500 966.4380 
715265.7500 2946137.2500 980.8110 
715265.7500 2946068.0000 954.5930 
715265.7500 2946094.7500 966.4810 
715265.7500 2946098.0000 966.9770 
715265.8750 2945955.5000 934.6860 
715265.9375 2946146.7500 987.7340 
715265.9375 2945956.0000 935.1020 
715266.0000 2945956.7500 935.5100 
715266.0000 2946147.2500 988.1230 
715266.0000 2946087.5000 963.6610 
715266.0000 2945957.2500 935.8640 
715266.0000 2946106.5000 966.3710 
715266.0625 2945958.7500 936.4790 
715266.0625 2946048.0000 945.8560 
715266.0625 2946071.5000 957.5650 
715266.0625 2946142.7500 984.4010 
715266.0625 2946048.5000 946.2480 
715266.0625 2946049.2500 946.4540 
715266.1250 2945960.5000 936.9970 
715266.1250 2945959.5000 936.9870 
715266.1250 2946118.5000 969.2200 
715266.1250 2945960.0000 937.2160 
715266.1250 2946143.7500 984.9170 
715266.1250 2946120.2500 969.8980 
715266.1250 2946119.5000 969.6890 
715266.1250 2946037.5000 941.6160 
715266.1250 2946037.0000 941.4070 
715266.1875 2946038.0000 942.0330 
715266.1875 2946125.7500 974.3650 
715266.1875 2946038.5000 942.0310 
715266.1875 2946123.7500 974.2220 
715266.1875 2946125.2500 974.2380 
715266.1875 2946041.7500 942.5190 
715266.1875 2946039.5000 942.2010 
715266.1875 2946040.5000 942.3980 
715266.1875 2946136.7500 980.4580 
715266.1875 2946124.2500 974.2580 
715266.1875 2945998.7500 943.3000 
715266.1875 2946041.2500 942.6470 
715266.1875 2946066.2500 953.9190 
715266.1875 2946064.7500 953.6180 
715266.1875 2945997.2500 943.3340 
715266.1875 2946067.5000 954.2260 
715266.2500 2946100.0000 967.1250 
715266.2500 2945961.7500 938.5970 
715266.2500 2946064.2500 953.6250 
715266.2500 2946101.5000 967.3160 
715266.2500 2946126.7500 974.9560 
715266.2500 2946101.0000 967.3280 
715266.2500 2946100.5000 967.2990 
715266.2500 2946137.2500 980.8960 
715266.2500 2946043.7500 943.2180 
715266.2500 2946096.5000 966.9330 
715266.2500 2946096.0000 966.8510 
715266.2500 2946093.2500 966.2880 
715266.2500 2946093.7500 966.3930 
715266.2500 2946098.0000 967.1380 
715266.3125 2946099.0000 967.3020 
715266.3125 2946095.5000 966.9110 
715266.3125 2946068.0000 954.9260 
715266.3125 2946077.2500 960.3520 
715266.3750 2946077.7500 960.5290 
715266.3750 2946146.2500 987.1660 
715266.4375 2946078.2500 960.9060 
715266.4375 2946053.2500 949.8580 
715266.4375 2946146.7500 987.8060 
715266.5000 2945956.2500 935.2650 
715266.5000 2946069.7500 956.6760 
715266.5000 2946070.2500 956.9760 
715266.5000 2945956.7500 935.7020 
715266.5000 2946108.0000 966.5460 
715266.5625 2946087.5000 963.7320 
715266.5625 2946088.0000 963.8710 
715266.5625 2946108.5000 966.6260 
715266.5625 2946048.0000 945.8660 
715266.5625 2946142.7500 984.4440 
715266.5625 2946048.7500 946.2660 
715266.6250 2946071.5000 957.7690 
715266.6250 2946118.0000 969.0660 
715266.6250 2946143.2500 984.6950 
715266.6250 2946119.0000 969.5140 
715266.6250 2945960.0000 937.1980 
715266.6250 2945950.5000 931.4670 
715266.6250 2946106.0000 966.9730 
715266.6250 2946117.5000 969.0450 
715266.6250 2946123.7500 973.9890 
715266.6250 2946124.7500 973.8800 
715266.6250 2946119.5000 969.8080 
715266.6875 2945951.2500 931.8580 
715266.6875 2946144.5000 985.2700 
715266.6875 2946145.0000 985.3680 
715266.6875 2945951.7500 932.2380 
715266.6875 2946041.0000 942.3810 
715266.6875 2946040.5000 942.3030 
715266.6875 2946136.7500 980.5620 
715266.6875 2946126.2500 974.7130 
715266.6875 2946038.5000 942.1190 
715266.7500 2946037.5000 941.7900 
715266.7500 2946039.0000 942.2070 
715266.7500 2946040.0000 942.4280 
715266.7500 2946038.0000 942.1240 
715266.7500 2945952.2500 932.6710 
715266.7500 2945997.5000 942.9660 
715266.7500 2946126.7500 974.9660 
715266.7500 2945998.0000 942.9360 
715266.7500 2946137.2500 980.9420 
715266.7500 2946037.0000 941.7910 
715266.7500 2946019.7500 944.2140 
715266.8125 2946097.5000 967.2500 
715266.8125 2946097.0000 967.2230 
715266.8125 2946093.2500 966.7220 
715266.8125 2946094.5000 966.8370 
715266.8125 2946093.7500 966.7900 
715266.8125 2946095.0000 967.0590 
715266.8750 2946099.0000 967.6910 
715266.8750 2946067.5000 955.0870 
715266.8750 2946076.7500 960.5710 
715266.8750 2946077.2500 960.6700 
715266.9375 2945948.2500 929.6410 
715266.9375 2946078.0000 960.9940 
715266.9375 2946075.2500 960.7720 
715267.0000 2946075.7500 960.9050 
715267.0000 2945981.0000 943.0350 
715267.0000 2946047.5000 945.1720 
715267.0000 2946146.7500 987.9780 
715267.0000 2946079.0000 961.3900 
715267.0000 2946078.5000 961.3730 
715267.0000 2946048.0000 945.5820 
715267.0000 2945980.0000 943.0900 
715267.0625 2946069.7500 956.8740 
715267.0625 2945980.5000 943.1290 
715267.0625 2946086.5000 963.5680 
715267.0625 2946147.2500 988.3420 
715267.0625 2946070.2500 957.1810 
715267.0625 2946142.2500 984.1870 
715267.0625 2946087.0000 963.8890 
715267.0625 2946109.0000 966.9750 
715267.0625 2946048.7500 946.2080 
715267.0625 2946142.7500 984.4690 
715267.1250 2946088.0000 964.3010 
715267.1250 2946125.7500 973.6300 
715267.1250 2946071.0000 957.6440 
715267.1250 2946088.5000 964.4630 
715267.1250 2946110.0000 967.2400 
715267.1250 2946109.5000 967.2080 
715267.1250 2946119.0000 969.6600 
715267.1250 2946089.0000 964.7900 
715267.1250 2945950.5000 931.5470 
715267.1250 2946144.0000 985.0160 
715267.1875 2946119.7500 969.9540 
715267.1875 2945951.2500 931.9050 
715267.1875 2946124.7500 974.1070 
715267.1875 2946117.5000 969.3370 
715267.1875 2946124.2500 974.2750 
715267.1875 2945951.7500 932.2610 
715267.1875 2946117.0000 969.1180 
715267.2500 2946125.2500 974.5210 
715267.2500 2945952.2500 932.7080 
715267.2500 2946039.0000 942.1590 
715267.2500 2946038.5000 942.1430 
715267.2500 2946114.7500 968.8700 
715267.2500 2946039.5000 942.3670 
715267.2500 2946000.7500 943.3650 
715267.2500 2946038.0000 942.1210 
715267.2500 2946037.5000 941.9110 
715267.3125 2946001.7500 943.7500 
715267.3125 2946092.7500 966.5340 
715267.3750 2946093.5000 966.9000 
715267.4375 2946067.0000 955.1190 
715267.4375 2946053.2500 949.6410 
715267.4375 2946002.0000 943.6120 
715267.4375 2946052.7500 949.8630 
715267.4375 2946075.5000 960.8880 
715267.5000 2946077.5000 961.1410 
715267.5000 2946076.0000 961.0640 
715267.5000 2946045.5000 944.8850 
715267.5000 2945947.7500 929.3590 
715267.5000 2946046.5000 945.0860 
715267.5000 2946069.2500 956.5170 
715267.5000 2946078.0000 961.4310 
715267.5000 2946079.0000 961.5850 
715267.5625 2946069.7500 957.1100 
715267.5625 2946047.5000 945.7630 
715267.6250 2946048.2500 946.0260 
715267.6250 2946070.5000 957.4720 
715267.6250 2946109.7500 967.2940 
715267.6250 2946086.5000 963.9260 
715267.6250 2946109.2500 967.3780 
715267.6250 2946087.0000 964.2510 
715267.6250 2946087.5000 964.4180 
715267.6875 2946125.2500 973.8060 
715267.6875 2946110.2500 967.5750 
715267.6875 2945950.5000 931.5630 
715267.6875 2945951.2500 931.9020 
715267.6875 2946144.0000 985.0900 
715267.6875 2946118.5000 969.7110 
715267.6875 2946001.2500 943.1410 
715267.6875 2946125.7500 974.3230 
715267.6875 2946124.7500 974.1110 
715267.6875 2946117.5000 969.4750 
715267.6875 2945959.5000 937.4180 
715267.6875 2946001.7500 943.3360 
715267.6875 2945951.7500 932.3690 
715267.6875 2946114.7500 968.7240 
715267.7500 2946136.7500 980.5510 
715267.7500 2946144.5000 985.4570 
715267.7500 2946126.2500 974.6900 
715267.7500 2946002.2500 943.5200 
715267.7500 2946117.0000 969.3500 
715267.7500 2946124.2500 974.4980 
715267.7500 2946115.5000 969.0840 
715267.7500 2946039.0000 942.1750 
715267.7500 2946149.0000 990.2680 
715267.8125 2946039.5000 942.4790 
715267.8125 2946018.7500 943.9820 
715267.8125 2946038.5000 942.3190 
715267.9375 2946066.5000 954.9850 
715267.9375 2946072.7500 960.0370 
715267.9375 2946066.0000 955.0800 
715267.9375 2945960.7500 937.5240 
715267.9375 2946067.0000 955.3470 
715267.9375 2946065.0000 955.0330 
715267.9375 2946065.5000 955.1860 
715267.9375 2945947.7500 929.3220 
715267.9375 2946073.2500 960.3270 
715268.0000 2946073.7500 960.5040 
715268.0000 2946052.7500 950.0270 
715268.0000 2946046.0000 944.8790 
715268.0000 2946064.5000 955.3240 
715268.0625 2946045.5000 945.3480 
715268.0625 2946141.7500 983.9180 
715268.0625 2946045.0000 945.4320 
715268.0625 2946069.2500 956.8160 
715268.0625 2945956.7500 935.9930 
715268.0625 2946039.5000 941.5090 
715268.0625 2946044.5000 945.4960 
715268.1250 2945957.2500 936.2510 
715268.1250 2946142.2500 984.3650 
715268.1250 2946047.0000 946.0280 
715268.1250 2946109.7500 967.6520 
715268.1875 2946039.0000 941.9020 
715268.1875 2946143.5000 984.9030 
715268.1875 2946038.7500 942.0810 
715268.1875 2946001.7500 943.1140 
715268.1875 2946124.7500 974.0830 
715268.1875 2946118.7500 969.7730 
715268.1875 2946125.7500 974.3340 
715268.1875 2945951.2500 931.9300 
715268.1875 2946135.5000 979.8650 
715268.1875 2946048.2500 946.5090 
715268.1875 2946117.5000 969.5370 
715268.1875 2946136.2500 980.2090 
715268.1875 2946124.2500 974.2740 
715268.1875 2946144.0000 985.1360 
715268.2500 2945951.7500 932.3470 
715268.2500 2945994.0000 939.9800 
715268.2500 2946117.0000 969.4620 
715268.2500 2946125.2500 974.5190 
715268.2500 2946144.5000 985.5150 
715268.2500 2946112.2500 968.4840 
715268.3125 2946114.5000 968.9760 
715268.3125 2946090.2500 965.9420 
715268.3125 2946037.7500 942.7350 
715268.3125 2946148.2500 990.4680 
715268.3125 2946090.7500 966.2720 
715268.3750 2946148.5000 990.3860 
715268.3750 2946072.7500 959.7750 
715268.3750 2946073.2500 959.9180 
715268.4375 2946073.7500 960.1390 
715268.4375 2946074.2500 960.4600 
715268.4375 2946066.5000 955.2700 
715268.4375 2946064.5000 955.1390 
715268.4375 2946066.0000 955.3530 
715268.4375 2946065.5000 955.3760 
715268.5000 2946065.0000 955.3860 
715268.5000 2946067.2500 955.6020 
715268.5000 2945992.0000 941.1250 
715268.5000 2946052.2500 949.9560 
715268.5625 2945956.2500 935.6980 
715268.5625 2946096.7500 968.5790 
715268.5625 2946068.2500 956.4060 
715268.5625 2945956.7500 936.0080 
715268.6250 2945957.7500 936.1430 
715268.6250 2945957.5000 936.3350 
715268.6250 2946038.2500 942.0560 
715268.6250 2946045.7500 945.9470 
715268.6250 2946069.2500 957.2730 
715268.6250 2946142.2500 984.4500 
715268.6250 2946124.7500 973.9800 
715268.6875 2945950.7500 931.5230 
715268.6875 2946125.7500 974.2880 
715268.6875 2946125.2500 974.2500 
715268.6875 2946117.5000 969.5480 
715268.6875 2946037.7500 942.3390 
715268.6875 2946070.0000 957.7600 
715268.6875 2946113.7500 968.5170 
715268.7500 2946117.0000 969.4940 
715268.7500 2946136.2500 980.2380 
715268.7500 2946116.5000 969.3670 
715268.7500 2946111.2500 968.3580 
715268.7500 2946113.2500 968.6440 
715268.7500 2946116.0000 969.2840 
715268.7500 2946087.7500 965.0080 
715268.7500 2946087.0000 964.8860 
715268.7500 2946115.0000 969.0530 
715268.7500 2946088.7500 965.4180 
715268.8125 2946114.5000 969.0090 
715268.8125 2946089.7500 966.0020 
715268.8750 2946090.2500 966.3010 
715268.8750 2946072.7500 959.5350 
715268.8750 2946148.5000 990.4220 
715268.8750 2946107.7500 968.8340 
715268.8750 2946073.2500 959.8470 
715268.8750 2946019.5000 943.9390 
715268.9375 2946073.7500 960.0710 
715268.9375 2946036.7500 942.9240 
715268.9375 2946149.2500 990.7880 
715268.9375 2946074.2500 960.3890 
715268.9375 2946066.7500 955.4060 
715268.9375 2946106.7500 969.1710 
715268.9375 2945992.0000 940.6440 
715268.9375 2945992.5000 940.6750 
715268.9375 2946066.2500 955.5090 
715269.0000 2946065.7500 955.5780 
715269.0625 2946094.7500 968.2300 
715269.0625 2946052.2500 950.1060 
715269.0625 2946095.2500 968.3770 
715269.0625 2945956.7500 935.8420 
715269.0625 2945957.7500 935.8310 
715269.0625 2946095.7500 968.5820 
715269.0625 2946098.7500 969.1960 
715269.0625 2945957.2500 935.9330 
715269.1250 2946096.2500 968.8130 
715269.1250 2946098.2500 969.2510 
715269.1250 2946067.7500 956.4230 
715269.1250 2946096.7500 969.0160 
715269.1250 2945950.2500 931.1600 
715269.1250 2946097.7500 969.2110 
715269.1250 2946001.7500 942.6600 
715269.1250 2946123.7500 973.8100 
715269.1250 2946002.2500 942.8760 
715269.1875 2945950.7500 931.5270 
715269.1875 2946068.7500 957.0950 
715269.1875 2945951.2500 931.9510 
715269.1875 2946114.0000 968.5100 
715269.1875 2946142.7500 984.6260 
715269.2500 2946118.2500 969.8420 
715269.2500 2946127.0000 974.7860 
715269.2500 2946143.5000 984.8930 
715269.2500 2945951.7500 932.4120 
715269.2500 2946114.5000 968.9150 
715269.2500 2946144.0000 985.2670 
715269.2500 2946086.5000 964.7920 
715269.3125 2946115.5000 969.3390 
715269.3125 2946115.0000 969.2240 
715269.3125 2946113.0000 968.9060 
715269.3125 2945992.5000 939.9820 
715269.3125 2946112.5000 968.9710 
715269.3125 2946087.7500 965.3640 
715269.3125 2946087.2500 965.2870 
715269.3125 2946112.0000 968.9760 
715269.3750 2946088.7500 965.9010 
715269.3750 2946072.2500 959.3960 
715269.3750 2945991.7500 939.9330 
715269.3750 2946072.7500 959.6220 
715269.3750 2946073.2500 959.8630 
715269.4375 2946109.0000 969.2430 
715269.4375 2946073.7500 960.3170 
715269.5000 2946074.5000 960.5180 
715269.5000 2946108.5000 969.5190 
715269.5000 2946108.0000 969.6170 
715269.5000 2945991.2500 940.3410 
715269.5000 2945957.7500 935.7010 
715269.5000 2945956.7500 935.5600 
715269.5000 2945957.2500 935.6770 
715269.5625 2946051.7500 949.8400 
715269.5625 2946093.5000 968.0860 
715269.5625 2946123.2500 972.9980 
715269.5625 2946001.7500 942.3430 
715269.5625 2946052.2500 950.2190 
715269.5625 2946123.7500 973.5590 
715269.5625 2946124.7500 973.7400 
715269.6250 2946124.2500 973.7300 
715269.6250 2946095.2500 968.6830 
715269.6250 2945950.2500 931.1070 
715269.6250 2946099.0000 969.4750 
715269.6250 2946097.7500 969.3630 
715269.6250 2946125.2500 973.9640 
715269.6250 2946098.2500 969.4720 
715269.6250 2945949.7500 931.1160 
715269.6250 2946079.7500 962.6780 
715269.6250 2945950.7500 931.4380 
715269.6875 2946067.7500 956.7130 
715269.6875 2946078.2500 962.6450 
715269.6875 2946096.7500 969.4110 
715269.6875 2946142.2500 984.2640 
715269.6875 2946125.7500 974.2070 
715269.6875 2946069.5000 957.4560 
715269.6875 2946078.7500 962.8540 
715269.6875 2946068.2500 957.0470 
715269.6875 2946069.0000 957.3390 
715269.6875 2946061.7500 956.7390 
715269.6875 2945951.2500 931.9830 
715269.6875 2946142.7500 984.5570 
715269.7500 2946114.0000 968.5900 
715269.7500 2946060.7500 956.7130 
715269.7500 2946143.5000 984.8040 
715269.7500 2946058.7500 956.2620 
715269.7500 2945951.7500 932.4240 
715269.7500 2946061.2500 957.0560 
715269.8125 2946059.2500 956.6490 
715269.8125 2946086.7500 965.0040 
715269.8125 2946118.2500 970.2480 
715269.8125 2946118.7500 970.4260 
715269.8125 2946119.2500 970.6880 
715269.8125 2946110.0000 968.9170 
715269.8750 2946117.7500 970.2230 
715269.8750 2946116.7500 970.0100 
715269.8750 2946115.0000 969.5900 
715269.8750 2946116.0000 969.8840 
715269.8750 2946072.2500 959.2900 
715269.8750 2946113.0000 969.3730 
715269.8750 2946088.7500 966.0470 
715269.8750 2946072.7500 959.6100 
715269.8750 2946129.5000 976.2000 
715269.8750 2946109.5000 969.1900 
715269.8750 2946110.5000 969.2560 
715269.9375 2946148.7500 990.7240 
715269.9375 2946111.0000 969.5160 
715269.9375 2946073.2500 960.0390 
715269.9375 2946149.2500 990.7690 
715270.0000 2946074.5000 960.5490 
715270.0000 2946074.0000 960.4090 
715270.0000 2946108.5000 969.8210 
715270.0000 2946123.7500 972.9000 
715270.0625 2946124.2500 973.1530 
715270.0625 2946124.7500 973.1920 
715270.0625 2945957.5000 935.7360 
715270.1250 2946002.2500 942.5080 
715270.1250 2946009.7500 954.2810 
715270.1250 2945950.2500 931.0980 
715270.1250 2946099.0000 969.5350 
715270.1250 2946094.2500 968.5910 
715270.1250 2946077.2500 962.2450 
715270.1250 2946094.7500 968.7700 
715270.1250 2946125.2500 973.9320 
715270.1250 2946100.0000 969.8270 
715270.1250 2946099.5000 969.7690 
715270.1250 2945949.7500 931.1630 
715270.1250 2946098.5000 969.6030 
715270.1875 2946098.0000 969.5430 
715270.1875 2945950.7500 931.4010 
715270.1875 2946079.7500 962.8550 
715270.1875 2946077.7500 962.5100 
715270.1875 2946095.7500 969.1130 
715270.1875 2946125.7500 974.1270 
715270.1875 2946096.2500 969.4160 
715270.1875 2946061.7500 956.7570 
715270.1875 2946096.7500 969.5470 
715270.1875 2946062.2500 956.8020 
715270.1875 2946142.2500 984.2870 
715270.1875 2946078.7500 963.0600 
715270.1875 2946078.2500 962.9730 
715270.2500 2945951.2500 931.9920 
715270.2500 2946068.5000 957.2650 
715270.2500 2946142.7500 984.5420 
715270.2500 2946069.0000 957.5320 
715270.2500 2946061.2500 957.0010 
715270.2500 2946059.7500 956.6520 
715270.2500 2945951.7500 932.3660 
715270.2500 2946029.0000 940.9260 
715270.2500 2946060.2500 956.9440 
715270.3125 2946058.7500 956.4660 
715270.3125 2946086.2500 964.9130 
715270.3125 2946059.2500 956.7330 
715270.3125 2945995.7500 939.3830 
715270.3125 2946109.5000 969.0410 
715270.3750 2946029.5000 941.7560 
715270.3750 2946110.5000 969.1730 
715270.3750 2946111.5000 969.3640 
715270.3750 2946148.7500 990.7800 
715270.3750 2946118.7500 970.6920 
715270.3750 2946118.2500 970.5610 
715270.3750 2946119.2500 970.9290 
715270.3750 2946116.2500 970.0520 
715270.3750 2946111.0000 969.4130 
715270.3750 2946117.7500 970.4590 
715270.3750 2946116.7500 970.2510 
715270.3750 2946149.2500 990.8440 
715270.4375 2946109.0000 969.3830 
715270.4375 2946009.0000 954.7670 
715270.4375 2946129.5000 976.1850 
715270.4375 2945960.7500 938.6140 
715270.4375 2946018.7500 942.7440 
715270.4375 2946073.5000 960.0950 
715270.4375 2946089.5000 966.5240 
715270.5000 2945958.7500 934.8960 
715270.5000 2946110.0000 969.6780 
715270.5000 2946030.5000 942.3600 
715270.5000 2945958.2500 935.3430 
715270.5625 2946075.0000 961.0940 
715270.5625 2946123.2500 972.8240 
